ply
format ascii 1.0
comment generated by citygen
element vertex 1220
property float x
property float y
property float z
property uchar red
property uchar green
property uchar blue
property int class
end_header
77.4615 0.6290 141.5605 176 164 148 4
77.4615 3.8798 141.4951 176 164 148 4
77.4615 6.5488 141.9126 176 164 148 4
77.4615 9.8515 141.8456 176 164 148 4
77.4615 12.7758 141.8092 176 164 148 4
77.4615 15.6191 141.9562 176 164 148 4
77.4615 18.2896 141.7063 176 164 148 4
77.4615 21.9205 141.7740 176 164 148 4
77.4615 24.9803 141.5485 176 164 148 4
77.4615 27.2990 141.5916 176 164 148 4
77.4615 30.9790 142.0403 176 164 148 4
77.4615 33.8302 142.1964 176 164 148 4
77.4615 36.6551 141.9736 176 164 148 4
77.4615 39.6608 141.7813 176 164 148 4
77.4615 0.7660 144.5077 176 164 148 4
77.4615 3.4005 144.7425 176 164 148 4
77.4615 6.9144 144.7736 176 164 148 4
77.4615 9.9597 144.5826 176 164 148 4
77.4615 12.7308 144.7417 176 164 148 4
77.4615 15.7874 144.6153 176 164 148 4
77.4615 18.9849 144.5494 176 164 148 4
77.4615 21.7867 145.1497 176 164 148 4
77.4615 24.8790 144.6195 176 164 148 4
77.4615 27.5878 144.5555 176 164 148 4
77.4615 30.4245 144.6289 176 164 148 4
77.4615 33.8051 144.8431 176 164 148 4
77.4615 36.8877 144.7805 176 164 148 4
77.4615 39.6042 144.7344 176 164 148 4
64.5848 0.7144 145.7509 176 164 148 4
64.5848 3.4458 145.7509 176 164 148 4
64.7643 6.7468 145.7509 176 164 148 4
64.5848 9.5022 145.7509 176 164 148 4
64.8028 12.9110 145.7509 176 164 148 4
64.7920 15.4472 145.7509 176 164 148 4
64.5848 18.6354 145.7509 176 164 148 4
64.9345 21.5565 145.7509 176 164 148 4
64.6094 24.4437 145.7509 176 164 148 4
64.5848 27.2760 145.7509 176 164 148 4
64.9167 30.3171 145.7509 176 164 148 4
64.7979 33.6486 145.7509 176 164 148 4
64.7713 36.3860 145.7509 176 164 148 4
64.5848 39.3642 145.7509 176 164 148 4
67.3559 0.6290 145.7509 176 164 148 4
67.4984 3.8833 145.7509 176 164 148 4
67.8471 6.3074 145.7509 176 164 148 4
67.2938 9.3436 145.7509 176 164 148 4
67.8235 12.9723 145.7509 176 164 148 4
67.8008 15.5026 145.7509 176 164 148 4
67.5978 18.9054 145.7509 176 164 148 4
67.7845 21.7573 145.7509 176 164 148 4
67.4370 24.3355 145.7509 176 164 148 4
67.6124 27.8088 145.7509 176 164 148 4
67.6496 30.5747 145.7509 176 164 148 4
67.9348 33.8298 145.7509 176 164 148 4
67.9314 36.4953 145.7509 176 164 148 4
67.9200 39.4791 145.7509 176 164 148 4
70.5608 0.9383 145.7509 176 164 148 4
70.3480 3.6725 145.7509 176 164 148 4
70.8081 6.5504 145.7509 176 164 148 4
70.8291 9.8441 145.7509 176 164 148 4
70.3574 12.9769 145.7509 176 164 148 4
70.2695 15.4901 145.7509 176 164 148 4
70.4259 18.7183 145.7509 176 164 148 4
70.5784 21.7024 145.7509 176 164 148 4
70.8269 24.6195 145.7509 176 164 148 4
70.4642 27.4072 145.7509 176 164 148 4
70.6160 30.2840 145.7509 176 164 148 4
70.6502 33.8488 145.7509 176 164 148 4
70.4739 36.3218 145.7509 176 164 148 4
70.8639 39.6964 145.7509 176 164 148 4
73.6230 0.6290 145.7509 176 164 148 4
73.3644 3.3962 145.7509 176 164 148 4
73.3840 6.5031 145.7509 176 164 148 4
73.7651 9.5280 145.7509 176 164 148 4
73.6966 12.9383 145.7509 176 164 148 4
73.3773 15.7458 145.7509 176 164 148 4
73.3040 18.9395 145.7509 176 164 148 4
73.3230 21.5974 145.7509 176 164 148 4
73.3573 24.4752 145.7509 176 164 148 4
73.7664 27.5631 145.7509 176 164 148 4
73.9241 30.3414 145.7509 176 164 148 4
73.4600 33.8542 145.7509 176 164 148 4
73.4497 36.6740 145.7509 176 164 148 4
73.3603 39.6178 145.7509 176 164 148 4
76.5229 0.6290 145.7509 176 164 148 4
76.3716 3.7119 145.7509 176 164 148 4
76.5750 6.5245 145.7509 176 164 148 4
76.7464 9.7391 145.7509 176 164 148 4
76.2515 12.9883 145.7509 176 164 148 4
76.4674 15.4537 145.7509 176 164 148 4
76.8478 18.8004 145.7509 176 164 148 4
76.8654 21.7866 145.7509 176 164 148 4
76.5389 24.6151 145.7509 176 164 148 4
76.6167 27.3484 145.7509 176 164 148 4
76.3071 30.5174 145.7509 176 164 148 4
76.5427 33.4014 145.7509 176 164 148 4
76.3062 36.8005 145.7509 176 164 148 4
76.4676 39.2842 145.7509 176 164 148 4
31.5667 11.9550 212.1817 112 116 122 5
31.4960 11.9550 215.3315 112 116 122 5
31.3409 11.9550 218.2744 112 116 122 5
31.3496 11.9550 221.4499 112 116 122 5
31.6004 11.9550 224.0614 112 116 122 5
31.3409 11.9550 227.2520 112 116 122 5
31.4828 11.9550 230.2403 112 116 122 5
31.3409 11.9550 233.0415 112 116 122 5
31.4490 11.9550 235.8862 112 116 122 5
31.4773 11.9550 238.9878 112 116 122 5
31.3409 11.9550 242.4496 112 116 122 5
31.5878 11.9550 245.1049 112 116 122 5
34.2258 11.9550 212.1817 112 116 122 5
34.3452 11.9550 215.1761 112 116 122 5
34.2323 11.9550 218.0791 112 116 122 5
34.6837 11.9550 221.0495 112 116 122 5
34.3026 11.9550 224.0452 112 116 122 5
34.5736 11.9550 227.4476 112 116 122 5
34.5052 11.9550 230.2972 112 116 122 5
34.6559 11.9550 233.0372 112 116 122 5
34.6941 11.9550 236.2240 112 116 122 5
34.4944 11.9550 239.3787 112 116 122 5
34.0119 11.9550 242.3888 112 116 122 5
34.3791 11.9550 244.9198 112 116 122 5
37.0945 11.9550 212.1817 112 116 122 5
37.6558 11.9550 215.5027 112 116 122 5
37.1351 11.9550 217.8219 112 116 122 5
37.6020 11.9550 221.1019 112 116 122 5
37.6710 11.9550 223.8844 112 116 122 5
37.3478 11.9550 227.3023 112 116 122 5
37.6630 11.9550 230.3300 112 116 122 5
37.0210 11.9550 232.9315 112 116 122 5
37.2510 11.9550 235.9083 112 116 122 5
37.5981 11.9550 239.2686 112 116 122 5
37.5335 11.9550 241.9393 112 116 122 5
37.5383 11.9550 244.8255 112 116 122 5
40.3589 11.9550 212.4783 112 116 122 5
40.3158 11.9550 215.0733 112 116 122 5
40.1161 11.9550 218.4166 112 116 122 5
40.5095 11.9550 221.4301 112 116 122 5
40.5529 11.9550 224.3982 112 116 122 5
40.1213 11.9550 226.9693 112 116 122 5
40.3814 11.9550 230.0517 112 116 122 5
40.2157 11.9550 233.5300 112 116 122 5
40.1636 11.9550 235.9141 112 116 122 5
40.4261 11.9550 238.8756 112 116 122 5
40.0231 11.9550 242.3491 112 116 122 5
40.4293 11.9550 244.9284 112 116 122 5
43.5992 11.9550 212.1817 112 116 122 5
43.3647 11.9550 214.9728 112 116 122 5
43.2950 11.9550 217.8304 112 116 122 5
43.4441 11.9550 239.3133 112 116 122 5
43.6797 11.9550 242.3285 112 116 122 5
43.6994 11.9550 245.0554 112 116 122 5
46.1873 11.9550 212.1817 112 116 122 5
46.5530 11.9550 215.3550 112 116 122 5
46.5328 11.9550 218.2027 112 116 122 5
46.6331 11.9550 221.1420 112 116 122 5
46.2923 11.9550 239.3456 112 116 122 5
46.4043 11.9550 242.5106 112 116 122 5
46.1911 11.9550 245.1339 112 116 122 5
49.2635 11.9550 212.1817 112 116 122 5
49.3301 11.9550 215.2202 112 116 122 5
49.6516 11.9550 218.2730 112 116 122 5
49.6133 11.9550 221.3034 112 116 122 5
49.4449 11.9550 239.5281 112 116 122 5
49.4667 11.9550 242.1097 112 116 122 5
49.4626 11.9550 245.2666 112 116 122 5
52.5475 11.9550 212.1817 112 116 122 5
52.2511 11.9550 214.8402 112 116 122 5
52.2641 11.9550 218.3360 112 116 122 5
52.0317 11.9550 221.0320 112 116 122 5
52.5931 11.9550 239.5087 112 116 122 5
52.6533 11.9550 242.1623 112 116 122 5
52.2024 11.9550 245.5085 112 116 122 5
55.1941 11.9550 212.4160 112 116 122 5
55.1061 11.9550 214.9710 112 116 122 5
55.2292 11.9550 217.9865 112 116 122 5
55.0528 11.9550 221.0188 112 116 122 5
55.1346 11.9550 238.9207 112 116 122 5
55.4129 11.9550 241.8764 112 116 122 5
55.2647 11.9550 245.2694 112 116 122 5
58.6595 11.9550 212.1817 112 116 122 5
58.4259 11.9550 215.5351 112 116 122 5
58.1473 11.9550 218.4868 112 116 122 5
58.6400 11.9550 221.1145 112 116 122 5
58.6519 11.9550 238.9366 112 116 122 5
58.4785 11.9550 242.4639 112 116 122 5
57.9880 11.9550 244.8751 112 116 122 5
61.6687 11.9550 212.3518 112 116 122 5
60.9926 11.9550 215.4891 112 116 122 5
61.3488 11.9550 217.9040 112 116 122 5
61.3079 11.9550 221.0272 112 116 122 5
61.1872 11.9550 223.9222 112 116 122 5
61.5744 11.9550 227.3568 112 116 122 5
61.3234 11.9550 229.8557 112 116 122 5
61.1830 11.9550 233.2545 112 116 122 5
61.1630 11.9550 236.4458 112 116 122 5
61.1280 11.9550 239.0754 112 116 122 5
61.6971 11.9550 242.3879 112 116 122 5
61.4032 11.9550 245.1343 112 116 122 5
64.6562 11.9550 212.2970 112 116 122 5
64.5762 11.9550 215.1700 112 116 122 5
64.4345 11.9550 218.0446 112 116 122 5
64.4406 11.9550 221.3212 112 116 122 5
64.4744 11.9550 224.0042 112 116 122 5
64.0355 11.9550 227.4127 112 116 122 5
64.0581 11.9550 229.8747 112 116 122 5
64.1699 11.9550 233.0485 112 116 122 5
64.5008 11.9550 236.5308 112 116 122 5
64.1857 11.9550 239.1560 112 116 122 5
64.1816 11.9550 242.2035 112 116 122 5
64.5240 11.9550 245.0467 112 116 122 5
67.0248 11.9550 212.2283 112 116 122 5
67.0116 11.9550 214.9238 112 116 122 5
67.4429 11.9550 218.2783 112 116 122 5
67.6578 11.9550 221.1953 112 116 122 5
66.9819 11.9550 224.3935 112 116 122 5
67.3819 11.9550 227.2844 112 116 122 5
67.1517 11.9550 229.8540 112 116 122 5
67.0449 11.9550 233.3209 112 116 122 5
67.4014 11.9550 235.9580 112 116 122 5
67.5428 11.9550 239.1375 112 116 122 5
67.5137 11.9550 242.0779 112 116 122 5
67.6497 11.9550 244.9429 112 116 122 5
31.3409 -0.2167 212.1817 176 164 148 4
31.3409 2.7501 212.4456 176 164 148 4
31.3409 5.4987 212.1817 176 164 148 4
31.3409 8.2516 212.3123 176 164 148 4
31.3409 11.6737 212.2069 176 164 148 4
31.3409 -0.2277 214.8618 176 164 148 4
31.3409 2.6841 215.2267 176 164 148 4
31.3409 5.7066 215.4594 176 164 148 4
31.3409 8.9050 215.5062 176 164 148 4
31.3409 11.8782 215.3282 176 164 148 4
31.3409 -0.4166 218.1729 176 164 148 4
31.3409 2.7990 218.0325 176 164 148 4
31.3409 5.3162 218.1542 176 164 148 4
31.3409 8.6237 218.4600 176 164 148 4
31.3409 11.5726 218.1753 176 164 148 4
31.3409 -0.4166 220.9182 176 164 148 4
31.3409 2.3062 221.3212 176 164 148 4
31.3409 5.8259 221.0334 176 164 148 4
31.3409 8.7069 221.0554 176 164 148 4
31.3409 11.6361 221.2898 176 164 148 4
31.3409 -0.4166 212.1817 176 164 148 4
31.5755 2.9062 212.1817 176 164 148 4
31.3409 5.7909 212.1817 176 164 148 4
31.6414 8.2437 212.1817 176 164 148 4
31.3409 11.5810 212.1817 176 164 148 4
34.5749 -0.4166 212.1817 176 164 148 4
34.2055 2.5993 212.1817 176 164 148 4
34.6318 5.3139 212.1817 176 164 148 4
34.4657 8.8460 212.1817 176 164 148 4
34.0317 11.4745 212.1817 176 164 148 4
37.2113 -0.3120 212.1817 176 164 148 4
37.6686 2.8938 212.1817 176 164 148 4
37.4516 5.8310 212.1817 176 164 148 4
37.3944 8.6951 212.1817 176 164 148 4
37.2054 11.9358 212.1817 176 164 148 4
40.4038 -0.4166 212.1817 176 164 148 4
40.4373 2.7221 212.1817 176 164 148 4
40.0629 5.4193 212.1817 176 164 148 4
40.6382 8.7396 212.1817 176 164 148 4
40.6452 11.4428 212.1817 176 164 148 4
31.3409 -0.4166 221.3515 176 164 148 4
31.3409 2.5425 221.3212 176 164 148 4
31.3409 5.4142 221.6333 176 164 148 4
31.3409 8.7414 221.6784 176 164 148 4
31.3409 11.8889 221.4699 176 164 148 4
31.3409 -0.4166 224.1212 176 164 148 4
31.3409 2.2675 224.5195 176 164 148 4
31.3409 5.7188 224.2467 176 164 148 4
31.3409 8.3749 224.5640 176 164 148 4
31.3409 11.2564 224.3319 176 164 148 4
31.3409 -0.3005 227.4573 176 164 148 4
31.3409 2.8358 227.6657 176 164 148 4
31.3409 5.5357 227.5449 176 164 148 4
31.3409 8.3675 227.0930 176 164 148 4
31.3409 11.6343 227.3439 176 164 148 4
31.3409 -0.2037 230.1982 176 164 148 4
31.3409 2.7712 229.9897 176 164 148 4
31.3409 5.5457 230.2409 176 164 148 4
31.3409 8.4392 230.3716 176 164 148 4
31.3409 11.3487 230.3445 176 164 148 4
31.3409 -0.4102 233.0215 176 164 148 4
31.3409 2.8165 233.4206 176 164 148 4
31.3409 5.4911 233.3616 176 164 148 4
31.3409 8.3486 233.6369 176 164 148 4
31.3409 11.4348 233.4886 176 164 148 4
31.3409 -0.4060 236.1030 176 164 148 4
31.3409 2.5548 236.5545 176 164 148 4
31.3409 5.5397 236.0346 176 164 148 4
31.3409 8.2712 235.9837 176 164 148 4
31.3409 11.7771 236.3432 176 164 148 4
41.4611 -0.4166 221.3928 176 164 148 4
41.4611 2.8523 221.4523 176 164 148 4
41.4611 5.5082 221.3286 176 164 148 4
41.4611 8.2844 221.5170 176 164 148 4
41.4611 11.5870 221.3212 176 164 148 4
41.4611 -0.1088 224.2931 176 164 148 4
41.4611 2.9025 224.1986 176 164 148 4
41.4611 5.3313 224.5844 176 164 148 4
41.4611 8.2436 224.5511 176 164 148 4
41.4611 11.6504 224.5436 176 164 148 4
41.4611 -0.3374 227.5877 176 164 148 4
41.4611 2.4548 227.1717 176 164 148 4
41.4611 5.6522 227.1989 176 164 148 4
41.4611 8.7537 227.6513 176 164 148 4
41.4611 11.3135 227.4532 176 164 148 4
41.4611 -0.3499 230.5815 176 164 148 4
41.4611 2.4285 230.4881 176 164 148 4
41.4611 5.2369 230.2888 176 164 148 4
41.4611 8.4784 230.6741 176 164 148 4
41.4611 11.7561 230.2480 176 164 148 4
41.4611 -0.3624 233.2419 176 164 148 4
41.4611 2.3495 233.5863 176 164 148 4
41.4611 5.4817 233.3830 176 164 148 4
41.4611 8.7696 233.3519 176 164 148 4
41.4611 11.9270 233.3672 176 164 148 4
41.4611 -0.4166 236.5326 176 164 148 4
41.4611 2.3480 236.0099 176 164 148 4
41.4611 5.5065 236.6278 176 164 148 4
41.4611 8.5794 236.1456 176 164 148 4
41.4611 11.4099 236.5609 176 164 148 4
31.3409 -0.4166 236.8922 176 164 148 4
31.3409 2.2464 236.8922 176 164 148 4
31.3409 5.7415 236.8922 176 164 148 4
31.3409 8.7260 236.8922 176 164 148 4
31.3409 11.4553 237.1725 176 164 148 4
31.3409 -0.4166 239.5861 176 164 148 4
31.3409 2.4630 240.1457 176 164 148 4
31.3409 5.9129 239.7605 176 164 148 4
31.3409 8.5955 239.7521 176 164 148 4
31.3409 11.7133 239.8210 176 164 148 4
31.3409 -0.4166 242.7120 176 164 148 4
31.3409 2.7180 242.8314 176 164 148 4
31.3409 5.8724 242.8895 176 164 148 4
31.3409 8.2805 243.1549 176 164 148 4
31.3409 11.3604 242.7361 176 164 148 4
31.3409 -0.4166 245.7633 176 164 148 4
31.3409 2.5084 246.0317 176 164 148 4
31.3409 5.7850 246.0317 176 164 148 4
31.3409 8.8893 245.6506 176 164 148 4
31.3409 11.5360 246.0317 176 164 148 4
31.3409 -0.2629 246.0317 176 164 148 4
31.3409 2.4862 246.0317 176 164 148 4
31.3771 5.4058 246.0317 176 164 148 4
31.3409 8.8004 246.0317 176 164 148 4
31.6481 11.4648 246.0317 176 164 148 4
34.6095 -0.2222 246.0317 176 164 148 4
34.2798 2.7371 246.0317 176 164 148 4
34.0166 5.8996 246.0317 176 164 148 4
34.4247 8.8783 246.0317 176 164 148 4
34.3964 11.6701 246.0317 176 164 148 4
37.2891 -0.0650 246.0317 176 164 148 4
37.2036 2.7796 246.0317 176 164 148 4
37.1472 5.9278 246.0317 176 164 148 4
37.5970 8.5863 246.0317 176 164 148 4
37.6034 11.7574 246.0317 176 164 148 4
40.6523 -0.4166 246.0317 176 164 148 4
40.1379 2.9356 246.0317 176 164 148 4
40.6928 5.8614 246.0317 176 164 148 4
40.1061 8.4716 246.0317 176 164 148 4
40.4097 11.4235 246.0317 176 164 148 4
41.4611 -0.3003 212.1817 176 164 148 4
41.5252 2.2354 212.1817 176 164 148 4
41.4611 5.6474 212.1817 176 164 148 4
41.4611 8.6288 212.1817 176 164 148 4
41.7696 11.7508 212.1817 176 164 148 4
44.7304 -0.4166 212.1817 176 164 148 4
44.5707 2.8145 212.1817 176 164 148 4
44.6556 5.6036 212.1817 176 164 148 4
44.3873 8.8159 212.1817 176 164 148 4
44.4095 11.9086 212.1817 176 164 148 4
47.3609 -0.4166 212.1817 176 164 148 4
47.5463 2.5614 212.1817 176 164 148 4
47.4958 5.9022 212.1817 176 164 148 4
47.6054 8.4761 212.1817 176 164 148 4
47.7606 11.7201 212.1817 176 164 148 4
50.2701 -0.3631 212.1817 176 164 148 4
50.3512 2.9209 212.1817 176 164 148 4
50.4306 5.8558 212.1817 176 164 148 4
50.7727 8.6280 212.1817 176 164 148 4
50.2050 11.3049 212.1817 176 164 148 4
53.6122 -0.4166 212.1817 176 164 148 4
53.3593 2.5362 212.1817 176 164 148 4
53.2675 5.7699 212.1817 176 164 148 4
53.3984 8.5045 212.1817 176 164 148 4
53.7649 11.9148 212.1817 176 164 148 4
56.6613 -0.4166 212.1817 176 164 148 4
56.8054 2.3038 212.1817 176 164 148 4
56.7676 5.5556 212.1817 176 164 148 4
56.1125 8.7586 212.1817 176 164 148 4
56.2869 11.3983 212.1817 176 164 148 4
41.7170 -0.1442 221.3212 176 164 148 4
41.7758 2.7430 221.3212 176 164 148 4
41.6396 5.3574 221.3212 176 164 148 4
41.5860 8.3653 221.3212 176 164 148 4
41.4611 11.4492 221.3212 176 164 148 4
44.5930 -0.3863 221.3212 176 164 148 4
44.5696 2.6802 221.3212 176 164 148 4
44.5792 5.7016 221.3212 176 164 148 4
44.5902 8.8513 221.3212 176 164 148 4
44.1393 11.8474 221.3212 176 164 148 4
47.5054 -0.4166 221.3212 176 164 148 4
47.3026 2.5139 221.3212 176 164 148 4
47.5064 5.4149 221.3212 176 164 148 4
47.1239 8.7274 221.3212 176 164 148 4
47.3969 11.9279 221.3212 176 164 148 4
50.5927 -0.4166 221.3212 176 164 148 4
50.4401 2.5814 221.3212 176 164 148 4
50.6877 5.7978 221.3212 176 164 148 4
50.4166 8.6786 221.3212 176 164 148 4
50.5641 11.8530 221.3212 176 164 148 4
53.8102 -0.4166 221.3212 176 164 148 4
53.6863 2.7961 221.3212 176 164 148 4
53.7101 5.4683 221.3212 176 164 148 4
53.5540 8.4181 221.3212 176 164 148 4
53.3071 11.3223 221.3212 176 164 148 4
56.6308 -0.4166 221.3212 176 164 148 4
56.4417 2.5547 221.3212 176 164 148 4
56.6095 5.5687 221.3212 176 164 148 4
56.5331 8.8443 221.3212 176 164 148 4
56.1942 11.2542 221.3212 176 164 148 4
41.5235 -0.4075 236.8922 176 164 148 4
41.6691 2.4133 236.8922 176 164 148 4
41.6360 5.8541 236.8922 176 164 148 4
41.4611 8.7656 236.8922 176 164 148 4
41.4611 11.4687 236.8922 176 164 148 4
44.3212 -0.1519 236.8922 176 164 148 4
44.4969 2.7790 236.8922 176 164 148 4
44.5716 5.8864 236.8922 176 164 148 4
44.5368 8.6926 236.8922 176 164 148 4
44.5498 11.7554 236.8922 176 164 148 4
47.6490 -0.2315 236.8922 176 164 148 4
47.6193 2.6958 236.8922 176 164 148 4
47.3700 5.9218 236.8922 176 164 148 4
47.5156 8.2632 236.8922 176 164 148 4
47.3322 11.3384 236.8922 176 164 148 4
50.7366 -0.4166 236.8922 176 164 148 4
50.2247 2.4031 236.8922 176 164 148 4
50.2527 5.6968 236.8922 176 164 148 4
50.1012 8.6385 236.8922 176 164 148 4
50.2352 11.3225 236.8922 176 164 148 4
53.6237 -0.4166 236.8922 176 164 148 4
53.1858 2.2302 236.8922 176 164 148 4
53.6296 5.3296 236.8922 176 164 148 4
53.2361 8.6206 236.8922 176 164 148 4
53.1190 11.4611 236.8922 176 164 148 4
56.4482 -0.2513 236.8922 176 164 148 4
56.1164 2.4032 236.8922 176 164 148 4
56.4355 5.7713 236.8922 176 164 148 4
56.5106 8.8305 236.8922 176 164 148 4
56.1890 11.5175 236.8922 176 164 148 4
41.4611 -0.0911 246.0317 176 164 148 4
41.4611 2.3036 246.0317 176 164 148 4
41.4611 5.5768 246.0317 176 164 148 4
41.4611 8.8697 246.0317 176 164 148 4
41.4996 11.8084 246.0317 176 164 148 4
44.2494 -0.2769 246.0317 176 164 148 4
44.5179 2.4607 246.0317 176 164 148 4
44.1274 5.5624 246.0317 176 164 148 4
44.6252 8.6478 246.0317 176 164 148 4
44.1125 11.8830 246.0317 176 164 148 4
47.6643 -0.1400 246.0317 176 164 148 4
47.3005 2.4494 246.0317 176 164 148 4
47.1088 5.6199 246.0317 176 164 148 4
47.4935 8.3921 246.0317 176 164 148 4
47.3916 11.2967 246.0317 176 164 148 4
50.6727 -0.4166 246.0317 176 164 148 4
50.2473 2.2318 246.0317 176 164 148 4
50.3055 5.5908 246.0317 176 164 148 4
50.4849 8.3152 246.0317 176 164 148 4
50.3985 11.2263 246.0317 176 164 148 4
53.4605 -0.3744 246.0317 176 164 148 4
53.2683 2.4638 246.0317 176 164 148 4
53.3325 5.5028 246.0317 176 164 148 4
53.3515 8.3241 246.0317 176 164 148 4
53.7639 11.6520 246.0317 176 164 148 4
56.7470 -0.4166 246.0317 176 164 148 4
56.5458 2.9352 246.0317 176 164 148 4
56.6310 5.5929 246.0317 176 164 148 4
56.5098 8.7097 246.0317 176 164 148 4
56.2102 11.2988 246.0317 176 164 148 4
68.8231 -0.2105 212.1817 176 164 148 4
68.8231 2.2582 212.5272 176 164 148 4
68.8231 5.3198 212.4918 176 164 148 4
68.8231 8.7952 212.1817 176 164 148 4
68.8231 11.5529 212.2589 176 164 148 4
68.8231 -0.4166 215.2440 176 164 148 4
68.8231 2.7624 215.0081 176 164 148 4
68.8231 5.8282 214.9246 176 164 148 4
68.8231 8.6137 215.2781 176 164 148 4
68.8231 11.5651 215.0177 176 164 148 4
68.8231 -0.3013 218.4507 176 164 148 4
68.8231 2.4828 218.4765 176 164 148 4
68.8231 5.6904 217.9904 176 164 148 4
68.8231 8.4513 217.8403 176 164 148 4
68.8231 11.9289 218.0818 176 164 148 4
68.8231 -0.3600 221.3212 176 164 148 4
68.8231 2.7241 221.1780 176 164 148 4
68.8231 5.3114 221.1180 176 164 148 4
68.8231 8.5561 221.3212 176 164 148 4
68.8231 11.5199 221.3212 176 164 148 4
58.9743 -0.4166 212.1817 176 164 148 4
58.7029 2.7315 212.1817 176 164 148 4
58.8934 5.8828 212.1817 176 164 148 4
59.0371 8.7727 212.1817 176 164 148 4
58.9847 11.6437 212.1817 176 164 148 4
61.8586 -0.2858 212.1817 176 164 148 4
61.7036 2.6878 212.1817 176 164 148 4
61.9311 5.4406 212.1817 176 164 148 4
61.4427 8.6144 212.1817 176 164 148 4
61.4780 11.3588 212.1817 176 164 148 4
64.6050 -0.2893 212.1817 176 164 148 4
64.9845 2.7856 212.1817 176 164 148 4
64.5415 5.7853 212.1817 176 164 148 4
64.4923 8.6633 212.1817 176 164 148 4
65.0562 11.6439 212.1817 176 164 148 4
67.6085 -0.1969 212.1817 176 164 148 4
67.9343 2.4703 212.1817 176 164 148 4
67.3965 5.5766 212.1817 176 164 148 4
67.7058 8.4180 212.1817 176 164 148 4
67.7422 11.2266 212.1817 176 164 148 4
58.7029 -0.4166 221.3212 176 164 148 4
58.7029 2.2559 221.4754 176 164 148 4
58.7029 5.2536 221.5203 176 164 148 4
58.7029 8.4980 221.4537 176 164 148 4
58.7029 11.6379 221.3212 176 164 148 4
58.7029 -0.2088 224.2248 176 164 148 4
58.7029 2.7209 224.0865 176 164 148 4
58.7029 5.6692 224.0322 176 164 148 4
58.7029 8.2479 224.2765 176 164 148 4
58.7029 11.9088 224.5752 176 164 148 4
58.7029 -0.4166 227.5559 176 164 148 4
58.7029 2.7595 227.0618 176 164 148 4
58.7029 5.4563 227.1109 176 164 148 4
58.7029 8.8259 227.6056 176 164 148 4
58.7029 11.2869 227.0336 176 164 148 4
58.7029 -0.4166 230.4191 176 164 148 4
58.7029 2.4884 230.1386 176 164 148 4
58.7029 5.6287 230.0508 176 164 148 4
58.7029 8.4909 230.4676 176 164 148 4
58.7029 11.7505 230.3809 176 164 148 4
58.7029 -0.4166 233.4565 176 164 148 4
58.7029 2.3826 233.2023 176 164 148 4
58.7029 5.3675 232.9642 176 164 148 4
58.7029 8.6946 233.2260 176 164 148 4
58.7029 11.4108 233.6381 176 164 148 4
58.7029 -0.4166 236.3579 176 164 148 4
58.7029 2.9284 236.0745 176 164 148 4
58.7029 5.3689 236.3402 176 164 148 4
58.7029 8.3147 236.0491 176 164 148 4
58.7029 11.2854 236.2446 176 164 148 4
68.8231 -0.2712 221.3479 176 164 148 4
68.8231 2.3886 221.3212 176 164 148 4
68.8231 5.4898 221.6687 176 164 148 4
68.8231 8.4495 221.5356 176 164 148 4
68.8231 11.7109 221.4097 176 164 148 4
68.8231 -0.1329 224.1171 176 164 148 4
68.8231 2.6526 224.2034 176 164 148 4
68.8231 5.9432 224.3944 176 164 148 4
68.8231 8.5285 224.3150 176 164 148 4
68.8231 11.8675 224.5431 176 164 148 4
68.8231 -0.1562 227.4550 176 164 148 4
68.8231 2.3023 227.3415 176 164 148 4
68.8231 5.7483 227.2216 176 164 148 4
68.8231 8.9365 227.3606 176 164 148 4
68.8231 11.4786 227.1626 176 164 148 4
68.8231 -0.4166 230.2327 176 164 148 4
68.8231 2.6216 230.4768 176 164 148 4
68.8231 5.9138 230.0398 176 164 148 4
68.8231 8.7104 230.2240 176 164 148 4
68.8231 11.4190 230.5650 176 164 148 4
68.8231 -0.4166 233.2362 176 164 148 4
68.8231 2.7876 233.3701 176 164 148 4
68.8231 5.9400 233.0232 176 164 148 4
68.8231 8.2376 233.1484 176 164 148 4
68.8231 11.8554 233.0052 176 164 148 4
68.8231 -0.4166 236.3811 176 164 148 4
68.8231 2.9140 236.0020 176 164 148 4
68.8231 5.8023 236.4997 176 164 148 4
68.8231 8.5569 236.1782 176 164 148 4
68.8231 11.5949 236.2780 176 164 148 4
68.8231 -0.4166 237.0780 176 164 148 4
68.8231 2.7167 237.1697 176 164 148 4
68.8231 5.3092 236.8922 176 164 148 4
68.8231 8.5357 236.8942 176 164 148 4
68.8231 11.3192 236.8922 176 164 148 4
68.8231 -0.4166 240.0937 176 164 148 4
68.8231 2.3549 239.6196 176 164 148 4
68.8231 5.3029 240.0853 176 164 148 4
68.8231 8.2904 239.6072 176 164 148 4
68.8231 11.5102 239.9972 176 164 148 4
68.8231 -0.2083 243.0250 176 164 148 4
68.8231 2.7544 243.0620 176 164 148 4
68.8231 5.7851 243.1540 176 164 148 4
68.8231 8.3978 242.9088 176 164 148 4
68.8231 11.9362 242.8967 176 164 148 4
68.8231 -0.1047 246.0317 176 164 148 4
68.8231 2.9316 245.8257 176 164 148 4
68.8231 5.5969 245.6347 176 164 148 4
68.8231 8.5611 246.0317 176 164 148 4
68.8231 11.2776 246.0317 176 164 148 4
58.7029 -0.4166 246.0317 176 164 148 4
58.9825 2.6398 246.0317 176 164 148 4
58.7029 5.7647 246.0317 176 164 148 4
58.7560 8.2448 246.0317 176 164 148 4
58.7729 11.7012 246.0317 176 164 148 4
61.4211 -0.2576 246.0317 176 164 148 4
61.8343 2.6869 246.0317 176 164 148 4
61.8505 5.3278 246.0317 176 164 148 4
61.6819 8.3680 246.0317 176 164 148 4
61.4737 11.8344 246.0317 176 164 148 4
64.5952 -0.1398 246.0317 176 164 148 4
64.6552 2.5580 246.0317 176 164 148 4
64.9148 5.3815 246.0317 176 164 148 4
64.5504 8.8763 246.0317 176 164 148 4
64.8574 11.4574 246.0317 176 164 148 4
67.7261 -0.0853 246.0317 176 164 148 4
68.0484 2.5723 246.0317 176 164 148 4
67.3890 5.6412 246.0317 176 164 148 4
67.6961 8.8456 246.0317 176 164 148 4
68.0622 11.6449 246.0317 176 164 148 4
111.5731 27.1220 108.0780 112 116 122 5
111.5731 27.1220 110.9614 112 116 122 5
111.5731 27.1220 114.0820 112 116 122 5
111.5731 27.1220 116.9255 112 116 122 5
111.5731 27.1220 120.0680 112 116 122 5
111.9072 27.1220 122.8486 112 116 122 5
111.5731 27.1220 125.6716 112 116 122 5
111.5861 27.1220 128.6006 112 116 122 5
111.5731 27.1220 131.8037 112 116 122 5
111.5731 27.1220 134.5588 112 116 122 5
111.5731 27.1220 137.9236 112 116 122 5
111.8006 27.1220 140.7392 112 116 122 5
114.7320 27.1220 107.8979 112 116 122 5
114.4885 27.1220 111.0944 112 116 122 5
114.6689 27.1220 113.5960 112 116 122 5
114.5686 27.1220 116.5720 112 116 122 5
114.3664 27.1220 119.6482 112 116 122 5
114.9195 27.1220 123.1410 112 116 122 5
114.4351 27.1220 125.7629 112 116 122 5
114.2443 27.1220 129.0942 112 116 122 5
114.8474 27.1220 131.6238 112 116 122 5
114.3891 27.1220 135.2187 112 116 122 5
114.5169 27.1220 138.1530 112 116 122 5
114.6885 27.1220 140.8949 112 116 122 5
117.5149 27.1220 107.8979 112 116 122 5
117.5755 27.1220 110.8915 112 116 122 5
117.6872 27.1220 114.2367 112 116 122 5
117.8694 27.1220 116.8768 112 116 122 5
117.4327 27.1220 119.6616 112 116 122 5
117.8901 27.1220 123.1266 112 116 122 5
117.3012 27.1220 126.2074 112 116 122 5
117.7215 27.1220 129.0692 112 116 122 5
117.6213 27.1220 131.7272 112 116 122 5
117.4382 27.1220 135.1313 112 116 122 5
117.6409 27.1220 138.2168 112 116 122 5
117.3859 27.1220 140.6481 112 116 122 5
120.8674 27.1220 107.8979 112 116 122 5
120.4551 27.1220 111.1258 112 116 122 5
120.2396 27.1220 114.0939 112 116 122 5
120.4099 27.1220 116.6280 112 116 122 5
120.8417 27.1220 119.5663 112 116 122 5
120.9306 27.1220 122.8982 112 116 122 5
120.5535 27.1220 125.8750 112 116 122 5
120.6866 27.1220 128.8057 112 116 122 5
120.6200 27.1220 131.7398 112 116 122 5
120.2832 27.1220 134.8368 112 116 122 5
120.7029 27.1220 138.1155 112 116 122 5
120.6319 27.1220 141.1732 112 116 122 5
123.2731 27.1220 107.8979 112 116 122 5
123.8052 27.1220 110.8666 112 116 122 5
123.5925 27.1220 114.0619 112 116 122 5
123.3965 27.1220 116.7761 112 116 122 5
123.4492 27.1220 134.5709 112 116 122 5
123.7959 27.1220 138.0645 112 116 122 5
123.4478 27.1220 141.0827 112 116 122 5
126.9091 27.1220 107.8979 112 116 122 5
126.3669 27.1220 111.0724 112 116 122 5
126.6772 27.1220 113.5739 112 116 122 5
126.3469 27.1220 116.6602 112 116 122 5
126.5481 27.1220 135.0364 112 116 122 5
126.2593 27.1220 137.7270 112 116 122 5
126.6652 27.1220 140.6746 112 116 122 5
129.6141 27.1220 107.8979 112 116 122 5
129.5568 27.1220 111.0266 112 116 122 5
129.5019 27.1220 113.8006 112 116 122 5
129.7453 27.1220 117.1708 112 116 122 5
129.3201 27.1220 135.0707 112 116 122 5
129.4636 27.1220 137.7923 112 116 122 5
129.7375 27.1220 140.5682 112 116 122 5
132.5956 27.1220 107.8979 112 116 122 5
132.5478 27.1220 110.9891 112 116 122 5
132.3197 27.1220 113.5571 112 116 122 5
132.3870 27.1220 117.1919 112 116 122 5
132.6394 27.1220 134.6658 112 116 122 5
132.8012 27.1220 137.5728 112 116 122 5
132.6712 27.1220 140.6677 112 116 122 5
135.6140 27.1220 107.8979 112 116 122 5
135.2879 27.1220 110.7576 112 116 122 5
135.5671 27.1220 113.6628 112 116 122 5
135.7385 27.1220 116.9644 112 116 122 5
135.4562 27.1220 134.9810 112 116 122 5
135.6658 27.1220 138.1786 112 116 122 5
135.5902 27.1220 140.6051 112 116 122 5
138.6185 27.1220 107.8979 112 116 122 5
138.2347 27.1220 111.1149 112 116 122 5
138.5779 27.1220 114.2541 112 116 122 5
138.7786 27.1220 116.9227 112 116 122 5
138.4266 27.1220 134.7208 112 116 122 5
138.8432 27.1220 137.8522 112 116 122 5
138.8263 27.1220 140.9572 112 116 122 5
141.8519 27.1220 107.8979 112 116 122 5
141.6002 27.1220 111.1645 112 116 122 5
141.7378 27.1220 114.2111 112 116 122 5
141.8033 27.1220 116.9085 112 116 122 5
141.7110 27.1220 119.5814 112 116 122 5
141.7552 27.1220 123.1900 112 116 122 5
141.3064 27.1220 125.9608 112 116 122 5
141.8864 27.1220 129.0044 112 116 122 5
141.6415 27.1220 131.8179 112 116 122 5
141.6838 27.1220 134.7424 112 116 122 5
141.5211 27.1220 137.5909 112 116 122 5
141.8380 27.1220 140.7104 112 116 122 5
144.3929 27.1220 108.0249 112 116 122 5
144.6961 27.1220 111.1965 112 116 122 5
144.5266 27.1220 113.9792 112 116 122 5
144.6063 27.1220 117.0141 112 116 122 5
144.6729 27.1220 120.0172 112 116 122 5
144.8802 27.1220 122.7212 112 116 122 5
144.3221 27.1220 125.5816 112 116 122 5
144.5538 27.1220 128.7030 112 116 122 5
144.9182 27.1220 132.0259 112 116 122 5
144.2791 27.1220 135.0735 112 116 122 5
144.3812 27.1220 137.7637 112 116 122 5
144.6449 27.1220 141.1628 112 116 122 5
147.6598 27.1220 108.2001 112 116 122 5
147.8229 27.1220 110.6948 112 116 122 5
147.2951 27.1220 113.7973 112 116 122 5
147.6126 27.1220 116.7123 112 116 122 5
147.2725 27.1220 120.0374 112 116 122 5
147.8153 27.1220 122.6011 112 116 122 5
147.5401 27.1220 125.9676 112 116 122 5
147.8922 27.1220 129.0959 112 116 122 5
147.4996 27.1220 132.1652 112 116 122 5
147.5860 27.1220 135.0799 112 116 122 5
147.7213 27.1220 138.0095 112 116 122 5
147.5190 27.1220 140.8041 112 116 122 5
150.7167 27.1220 108.1157 112 116 122 5
150.5394 27.1220 111.1954 112 116 122 5
150.8183 27.1220 113.9708 112 116 122 5
150.3983 27.1220 116.6603 112 116 122 5
150.9278 27.1220 119.6917 112 116 122 5
150.8452 27.1220 122.9216 112 116 122 5
150.6864 27.1220 125.7585 112 116 122 5
150.2223 27.1220 128.9998 112 116 122 5
150.5893 27.1220 131.6654 112 116 122 5
150.8864 27.1220 135.0641 112 116 122 5
150.6359 27.1220 137.9496 112 116 122 5
150.3619 27.1220 141.2539 112 116 122 5
111.5731 -0.3689 107.9989 176 164 148 4
111.5731 2.8885 107.8979 176 164 148 4
111.5731 5.6221 107.8979 176 164 148 4
111.5731 8.3782 107.8979 176 164 148 4
111.5731 11.6893 108.2547 176 164 148 4
111.5731 14.6781 107.8979 176 164 148 4
111.5731 17.6752 107.9044 176 164 148 4
111.5731 20.5334 107.8979 176 164 148 4
111.5731 23.3352 108.1949 176 164 148 4
111.5731 26.3352 108.2531 176 164 148 4
111.5731 -0.3689 111.1203 176 164 148 4
111.5731 2.5001 111.1956 176 164 148 4
111.5731 5.4527 110.8983 176 164 148 4
111.5731 8.7915 110.5725 176 164 148 4
111.5731 11.6441 111.0189 176 164 148 4
111.5731 14.9171 110.8694 176 164 148 4
111.5731 17.2770 111.1864 176 164 148 4
111.5731 20.5029 110.9472 176 164 148 4
111.5731 23.7697 110.9772 176 164 148 4
111.5731 26.8727 111.0115 176 164 148 4
111.5731 -0.3261 114.1605 176 164 148 4
111.5731 2.4769 114.0538 176 164 148 4
111.5731 5.5136 114.1568 176 164 148 4
111.5731 8.7138 114.1983 176 164 148 4
111.5731 11.6183 114.2304 176 164 148 4
111.5731 14.6785 114.0808 176 164 148 4
111.5731 17.3703 113.6141 176 164 148 4
111.5731 20.5056 113.7398 176 164 148 4
111.5731 23.7842 114.0928 176 164 148 4
111.5731 26.8392 114.1939 176 164 148 4
111.5731 -0.3689 117.1332 176 164 148 4
111.5731 2.6060 117.2214 176 164 148 4
111.5731 5.2828 117.0028 176 164 148 4
111.5731 8.4879 116.7466 176 164 148 4
111.5731 11.5736 117.1566 176 164 148 4
111.5731 14.2838 116.7319 176 164 148 4
111.5731 17.3629 117.0089 176 164 148 4
111.5731 20.3576 116.6936 176 164 148 4
111.5731 23.4776 117.0327 176 164 148 4
111.5731 26.9880 116.7995 176 164 148 4
111.5731 -0.1867 107.8979 176 164 148 4
111.5731 2.6407 107.8979 176 164 148 4
111.5731 5.7855 107.8979 176 164 148 4
111.5731 8.6504 107.8979 176 164 148 4
111.6289 11.2810 107.8979 176 164 148 4
111.7307 14.6938 107.8979 176 164 148 4
111.5731 17.8872 107.8979 176 164 148 4
111.6107 20.2869 107.8979 176 164 148 4
111.7812 23.5229 107.8979 176 164 148 4
111.5731 26.4671 107.8979 176 164 148 4
114.6077 -0.3689 107.8979 176 164 148 4
114.5931 2.5401 107.8979 176 164 148 4
114.8525 5.4126 107.8979 176 164 148 4
114.4789 8.8112 107.8979 176 164 148 4
114.8430 11.4313 107.8979 176 164 148 4
114.4098 14.5542 107.8979 176 164 148 4
114.4252 17.6234 107.8979 176 164 148 4
114.8815 20.9093 107.8979 176 164 148 4
114.5746 23.6199 107.8979 176 164 148 4
114.4403 26.8348 107.8979 176 164 148 4
117.7823 -0.3689 107.8979 176 164 148 4
117.6816 2.8930 107.8979 176 164 148 4
117.2661 5.5746 107.8979 176 164 148 4
117.2152 8.3677 107.8979 176 164 148 4
117.6540 11.6956 107.8979 176 164 148 4
117.6568 14.3422 107.8979 176 164 148 4
117.8731 17.4248 107.8979 176 164 148 4
117.5683 20.8172 107.8979 176 164 148 4
117.4361 23.6020 107.8979 176 164 148 4
117.8543 26.2841 107.8979 176 164 148 4
120.2370 -0.3689 107.8979 176 164 148 4
120.7280 2.7320 107.8979 176 164 148 4
120.6810 5.4591 107.8979 176 164 148 4
120.8930 8.8719 107.8979 176 164 148 4
120.4157 11.4420 107.8979 176 164 148 4
120.4252 14.4637 107.8979 176 164 148 4
120.6033 17.6671 107.8979 176 164 148 4
120.9315 20.6333 107.8979 176 164 148 4
120.8431 23.2936 107.8979 176 164 148 4
120.7926 26.5516 107.8979 176 164 148 4
111.5731 -0.3689 117.2214 176 164 148 4
111.5731 2.2865 117.4713 176 164 148 4
111.5731 5.3983 117.3266 176 164 148 4
111.5731 8.6318 117.2214 176 164 148 4
111.5731 11.3453 117.2214 176 164 148 4
111.5731 14.3656 117.2214 176 164 148 4
111.5731 17.8480 117.2214 176 164 148 4
111.5731 20.7653 117.2214 176 164 148 4
111.5731 23.5135 117.2214 176 164 148 4
111.5731 26.9877 117.2214 176 164 148 4
111.5731 -0.3681 120.0875 176 164 148 4
111.5731 2.7156 120.5587 176 164 148 4
111.5731 5.5042 120.5432 176 164 148 4
111.5731 8.6668 120.4578 176 164 148 4
111.5731 11.8802 120.4524 176 164 148 4
111.5731 14.6694 120.1718 176 164 148 4
111.5731 17.6801 120.5369 176 164 148 4
111.5731 20.7443 120.0566 176 164 148 4
111.5731 23.6340 119.9345 176 164 148 4
111.5731 26.7938 119.8810 176 164 148 4
111.5731 -0.2293 123.1078 176 164 148 4
111.5731 2.5151 123.1068 176 164 148 4
111.5731 5.3759 122.8856 176 164 148 4
111.5731 8.7374 122.9927 176 164 148 4
111.5731 11.2819 122.8883 176 164 148 4
111.5731 14.8065 122.8899 176 164 148 4
111.5731 17.7906 123.4532 176 164 148 4
111.5731 20.9877 123.2395 176 164 148 4
111.5731 23.6674 123.4116 176 164 148 4
111.5731 26.3090 123.3023 176 164 148 4
111.5731 -0.2317 126.5328 176 164 148 4
111.5731 2.5019 126.3099 176 164 148 4
111.5731 5.5180 125.9414 176 164 148 4
111.5731 8.2713 126.4116 176 164 148 4
111.5731 11.3082 126.1031 176 164 148 4
111.5731 14.9313 126.5253 176 164 148 4
111.5731 17.8655 125.9475 176 164 148 4
111.5731 20.7023 126.4880 176 164 148 4
111.5731 23.5322 126.3582 176 164 148 4
111.5731 26.6324 126.0060 176 164 148 4
111.5731 -0.3689 129.3867 176 164 148 4
111.5731 2.9099 128.9178 176 164 148 4
111.5731 5.9578 129.2064 176 164 148 4
111.5731 8.8974 129.0788 176 164 148 4
111.5731 11.3492 129.5507 176 164 148 4
111.5731 14.9049 128.9723 176 164 148 4
111.5731 17.5606 129.3057 176 164 148 4
111.5731 20.8300 128.9825 176 164 148 4
111.5731 23.8236 129.0085 176 164 148 4
111.5731 26.4252 129.0937 176 164 148 4
111.5731 -0.3689 132.4862 176 164 148 4
111.5731 2.5058 132.1189 176 164 148 4
111.5731 5.4488 132.2623 176 164 148 4
111.5731 8.3005 132.5219 176 164 148 4
111.5731 11.5947 131.8900 176 164 148 4
111.5731 14.2849 132.1709 176 164 148 4
111.5731 17.5817 131.9083 176 164 148 4
111.5731 20.3568 132.4351 176 164 148 4
111.5731 23.5201 132.3964 176 164 148 4
111.5731 26.7809 132.0829 176 164 148 4
122.4366 -0.3689 117.2214 176 164 148 4
122.4366 2.5897 117.2939 176 164 148 4
122.4366 5.9833 117.2214 176 164 148 4
122.4366 8.4534 117.4726 176 164 148 4
122.4366 11.5874 117.2214 176 164 148 4
122.4366 14.7423 117.5673 176 164 148 4
122.4366 17.8084 117.5070 176 164 148 4
122.4366 20.3359 117.4878 176 164 148 4
122.4366 23.5741 117.2214 176 164 148 4
122.4366 26.4257 117.2214 176 164 148 4
122.4366 -0.0395 120.4981 176 164 148 4
122.4366 2.4736 120.5445 176 164 148 4
122.4366 5.4601 119.9282 176 164 148 4
122.4366 8.8576 120.4825 176 164 148 4
122.4366 11.8918 120.0025 176 164 148 4
122.4366 14.8839 120.2210 176 164 148 4
122.4366 17.6231 119.9874 176 164 148 4
122.4366 20.3913 120.2730 176 164 148 4
122.4366 23.8866 120.4323 176 164 148 4
122.4366 26.7064 120.1715 176 164 148 4
122.4366 -0.2891 123.0698 176 164 148 4
122.4366 2.6250 123.2675 176 164 148 4
122.4366 5.6525 123.4046 176 164 148 4
122.4366 8.9393 122.9649 176 164 148 4
122.4366 11.5968 123.1938 176 164 148 4
122.4366 14.4000 123.1671 176 164 148 4
122.4366 17.5493 123.1947 176 164 148 4
122.4366 20.5909 123.1360 176 164 148 4
122.4366 23.2914 123.4157 176 164 148 4
122.4366 26.4451 123.0476 176 164 148 4
122.4366 -0.3689 126.5327 176 164 148 4
122.4366 2.9805 126.4350 176 164 148 4
122.4366 5.7242 126.2279 176 164 148 4
122.4366 8.4902 126.5588 176 164 148 4
122.4366 11.7810 126.0935 176 164 148 4
122.4366 14.3755 126.5660 176 164 148 4
122.4366 17.6945 126.4981 176 164 148 4
122.4366 20.5049 126.5783 176 164 148 4
122.4366 23.4887 125.9286 176 164 148 4
122.4366 26.6694 126.1847 176 164 148 4
122.4366 -0.3689 129.2348 176 164 148 4
122.4366 2.4400 129.4431 176 164 148 4
122.4366 5.8174 129.1588 176 164 148 4
122.4366 8.6047 128.9443 176 164 148 4
122.4366 11.4699 129.0009 176 164 148 4
122.4366 14.4781 129.5575 176 164 148 4
122.4366 17.9605 129.5586 176 164 148 4
122.4366 20.3047 129.2134 176 164 148 4
122.4366 23.8226 129.3465 176 164 148 4
122.4366 26.7193 129.3352 176 164 148 4
122.4366 -0.2664 132.4660 176 164 148 4
122.4366 2.8955 132.0054 176 164 148 4
122.4366 5.4098 131.9695 176 164 148 4
122.4366 8.3413 132.2917 176 164 148 4
122.4366 11.7835 132.0960 176 164 148 4
122.4366 14.8393 132.4747 176 164 148 4
122.4366 17.8386 132.2080 176 164 148 4
122.4366 20.3947 132.4717 176 164 148 4
122.4366 23.7092 131.8771 176 164 148 4
122.4366 26.3900 132.3191 176 164 148 4
111.5731 -0.3689 133.1060 176 164 148 4
111.5731 2.5586 133.1060 176 164 148 4
111.5731 5.4767 133.1631 176 164 148 4
111.5731 8.7817 133.3142 176 164 148 4
111.5731 11.7373 133.1060 176 164 148 4
111.5731 14.6125 133.1711 176 164 148 4
111.5731 17.7054 133.1060 176 164 148 4
111.5731 20.7135 133.1060 176 164 148 4
111.5731 23.4414 133.1060 176 164 148 4
111.5731 26.6330 133.4312 176 164 148 4
111.5731 -0.2216 135.9057 176 164 148 4
111.5731 2.3329 136.3679 176 164 148 4
111.5731 5.6765 135.9127 176 164 148 4
111.5731 8.7027 136.0020 176 164 148 4
111.5731 11.9635 135.8092 176 164 148 4
111.5731 14.3937 136.1818 176 164 148 4
111.5731 17.6984 136.3111 176 164 148 4
111.5731 20.6271 136.4186 176 164 148 4
111.5731 23.8751 136.3465 176 164 148 4
111.5731 26.3180 135.9790 176 164 148 4
111.5731 -0.3050 139.0534 176 164 148 4
111.5731 2.9023 138.8015 176 164 148 4
111.5731 5.7003 138.7775 176 164 148 4
111.5731 8.7029 139.2380 176 164 148 4
111.5731 11.8164 139.1311 176 164 148 4
111.5731 14.8739 139.4075 176 164 148 4
111.5731 17.5903 139.1981 176 164 148 4
111.5731 20.4720 139.3817 176 164 148 4
111.5731 23.9893 139.4329 176 164 148 4
111.5731 26.3882 139.3052 176 164 148 4
111.5731 -0.3689 141.9985 176 164 148 4
111.5731 2.6982 142.2533 176 164 148 4
111.5731 5.8798 142.0717 176 164 148 4
111.5731 8.9527 142.1691 176 164 148 4
111.5731 11.5317 141.7997 176 164 148 4
111.5731 14.6188 141.8728 176 164 148 4
111.5731 17.6607 142.3671 176 164 148 4
111.5731 20.9639 142.1404 176 164 148 4
111.5731 23.7362 142.2087 176 164 148 4
111.5731 26.7789 141.7803 176 164 148 4
111.5731 -0.3689 142.4296 176 164 148 4
111.5731 2.3386 142.4296 176 164 148 4
111.5731 5.5786 142.4296 176 164 148 4
111.5731 8.6313 142.4296 176 164 148 4
111.5731 11.8679 142.4296 176 164 148 4
111.5731 14.6413 142.4296 176 164 148 4
111.5731 17.6228 142.4296 176 164 148 4
111.5731 20.3042 142.4296 176 164 148 4
111.7595 23.9402 142.4296 176 164 148 4
111.5731 26.9041 142.4296 176 164 148 4
114.7895 -0.2286 142.4296 176 164 148 4
114.4919 2.7917 142.4296 176 164 148 4
114.2201 5.5206 142.4296 176 164 148 4
114.3195 8.9142 142.4296 176 164 148 4
114.8300 11.3288 142.4296 176 164 148 4
114.7508 14.6210 142.4296 176 164 148 4
114.8440 17.3525 142.4296 176 164 148 4
114.3730 20.9560 142.4296 176 164 148 4
114.4027 23.6959 142.4296 176 164 148 4
114.4340 26.3829 142.4296 176 164 148 4
117.2895 -0.3689 142.4296 176 164 148 4
117.7135 2.3858 142.4296 176 164 148 4
117.3954 5.5950 142.4296 176 164 148 4
117.8142 8.4059 142.4296 176 164 148 4
117.3630 11.9839 142.4296 176 164 148 4
117.8099 14.5567 142.4296 176 164 148 4
117.4563 17.4904 142.4296 176 164 148 4
117.2871 20.8517 142.4296 176 164 148 4
117.4916 23.4001 142.4296 176 164 148 4
117.6456 26.4255 142.4296 176 164 148 4
120.2976 -0.3689 142.4296 176 164 148 4
120.4871 2.4472 142.4296 176 164 148 4
120.6648 5.5924 142.4296 176 164 148 4
120.4492 8.8129 142.4296 176 164 148 4
120.3395 11.7891 142.4296 176 164 148 4
120.5022 14.3653 142.4296 176 164 148 4
120.7907 17.7192 142.4296 176 164 148 4
120.5222 20.2806 142.4296 176 164 148 4
120.3158 23.5353 142.4296 176 164 148 4
120.8130 26.4148 142.4296 176 164 148 4
122.7210 -0.3689 107.8979 176 164 148 4
122.4366 2.7558 107.8979 176 164 148 4
122.5172 5.3877 107.8979 176 164 148 4
122.4366 8.8030 107.8979 176 164 148 4
122.4366 11.9318 107.8979 176 164 148 4
122.6309 14.6291 107.8979 176 164 148 4
122.7733 17.3420 107.8979 176 164 148 4
122.4366 20.9125 107.8979 176 164 148 4
122.7215 23.3302 107.8979 176 164 148 4
122.6051 26.6288 107.8979 176 164 148 4
125.1824 -0.0841 107.8979 176 164 148 4
125.7293 2.8917 107.8979 176 164 148 4
125.1558 5.7172 107.8979 176 164 148 4
125.4894 8.3860 107.8979 176 164 148 4
125.6557 11.8991 107.8979 176 164 148 4
125.7408 14.7505 107.8979 176 164 148 4
125.6245 17.6089 107.8979 176 164 148 4
125.4112 20.8887 107.8979 176 164 148 4
125.5956 23.7607 107.8979 176 164 148 4
125.1961 26.2848 107.8979 176 164 148 4
128.4060 -0.1308 107.8979 176 164 148 4
128.3010 2.6517 107.8979 176 164 148 4
128.4970 5.5309 107.8979 176 164 148 4
128.2964 8.3348 107.8979 176 164 148 4
128.1499 11.5933 107.8979 176 164 148 4
128.4929 14.2749 107.8979 176 164 148 4
128.2012 17.8036 107.8979 176 164 148 4
128.2137 20.3170 107.8979 176 164 148 4
128.7672 23.3896 107.8979 176 164 148 4
128.2270 26.6847 107.8979 176 164 148 4
131.5782 -0.3689 107.8979 176 164 148 4
131.5704 2.2791 107.8979 176 164 148 4
131.1497 5.9257 107.8979 176 164 148 4
131.1869 8.9419 107.8979 176 164 148 4
131.7462 11.3259 107.8979 176 164 148 4
131.6328 14.8089 107.8979 176 164 148 4
131.6617 17.3932 107.8979 176 164 148 4
131.7653 20.3925 107.8979 176 164 148 4
131.4393 23.6976 107.8979 176 164 148 4
131.7404 26.3688 107.8979 176 164 148 4
134.7495 -0.3689 107.8979 176 164 148 4
134.7740 2.3036 107.8979 176 164 148 4
134.6310 5.9157 107.8979 176 164 148 4
134.7743 8.5615 107.8979 176 164 148 4
134.6231 11.6106 107.8979 176 164 148 4
134.1259 14.3554 107.8979 176 164 148 4
134.4376 17.8734 107.8979 176 164 148 4
134.4780 20.4363 107.8979 176 164 148 4
134.7011 23.8068 107.8979 176 164 148 4
134.2191 26.9747 107.8979 176 164 148 4
137.2019 -0.3689 107.8979 176 164 148 4
137.4102 2.8956 107.8979 176 164 148 4
137.6795 5.6073 107.8979 176 164 148 4
137.4408 8.6968 107.8979 176 164 148 4
137.4644 11.7782 107.8979 176 164 148 4
137.5166 14.3979 107.8979 176 164 148 4
137.7634 17.4382 107.8979 176 164 148 4
137.1809 20.5757 107.8979 176 164 148 4
137.4518 23.3560 107.8979 176 164 148 4
137.2972 26.7091 107.8979 176 164 148 4
140.2748 -0.0668 107.8979 176 164 148 4
140.2442 2.6865 107.8979 176 164 148 4
140.7942 5.6352 107.8979 176 164 148 4
140.2807 8.9868 107.8979 176 164 148 4
140.5265 11.8515 107.8979 176 164 148 4
140.4219 14.5476 107.8979 176 164 148 4
140.6237 17.3710 107.8979 176 164 148 4
140.1543 20.9345 107.8979 176 164 148 4
140.2357 23.7445 107.8979 176 164 148 4
140.1389 26.4941 107.8979 176 164 148 4
122.4366 -0.3551 117.2214 176 164 148 4
122.5107 2.8229 117.2214 176 164 148 4
122.4366 5.6233 117.2214 176 164 148 4
122.4366 8.2936 117.2214 176 164 148 4
122.4366 11.9664 117.2214 176 164 148 4
122.4366 14.7930 117.2214 176 164 148 4
122.6814 17.6190 117.2214 176 164 148 4
122.4366 20.7356 117.2214 176 164 148 4
122.4366 23.7630 117.2214 176 164 148 4
122.4366 26.3690 117.2214 176 164 148 4
125.6083 -0.3689 117.2214 176 164 148 4
125.4551 2.9832 117.2214 176 164 148 4
125.3165 5.4632 117.2214 176 164 148 4
125.4644 8.6023 117.2214 176 164 148 4
125.2419 11.5748 117.2214 176 164 148 4
125.3161 14.7046 117.2214 176 164 148 4
125.6269 17.9573 117.2214 176 164 148 4
125.4442 20.9574 117.2214 176 164 148 4
125.4808 23.7401 117.2214 176 164 148 4
125.1290 26.7865 117.2214 176 164 148 4
128.1333 -0.3689 117.2214 176 164 148 4
128.3472 2.7237 117.2214 176 164 148 4
128.2282 5.2820 117.2214 176 164 148 4
128.2925 8.5325 117.2214 176 164 148 4
128.2458 11.6556 117.2214 176 164 148 4
128.4692 14.8841 117.2214 176 164 148 4
128.4978 17.3164 117.2214 176 164 148 4
128.1683 20.8230 117.2214 176 164 148 4
128.4366 23.4722 117.2214 176 164 148 4
128.7328 26.3876 117.2214 176 164 148 4
131.6542 -0.0954 117.2214 176 164 148 4
131.2995 2.4054 117.2214 176 164 148 4
131.3113 5.4984 117.2214 176 164 148 4
131.5565 8.3718 117.2214 176 164 148 4
131.0820 11.7570 117.2214 176 164 148 4
131.2286 14.4121 117.2214 176 164 148 4
131.2094 17.4460 117.2214 176 164 148 4
131.6769 20.5152 117.2214 176 164 148 4
131.3789 23.5156 117.2214 176 164 148 4
131.4339 26.7480 117.2214 176 164 148 4
134.1847 -0.3689 117.2214 176 164 148 4
134.7866 2.7015 117.2214 176 164 148 4
134.3130 5.5191 117.2214 176 164 148 4
134.7567 8.7519 117.2214 176 164 148 4
134.4605 11.8135 117.2214 176 164 148 4
134.2018 14.8408 117.2214 176 164 148 4
134.7273 17.5934 117.2214 176 164 148 4
134.5193 20.7450 117.2214 176 164 148 4
134.3888 23.5644 117.2214 176 164 148 4
134.1091 26.3573 117.2214 176 164 148 4
137.6192 -0.1466 117.2214 176 164 148 4
137.3960 2.9326 117.2214 176 164 148 4
137.6783 5.9577 117.2214 176 164 148 4
137.4585 8.6004 117.2214 176 164 148 4
137.6277 11.4513 117.2214 176 164 148 4
137.6734 14.8053 117.2214 176 164 148 4
137.6764 17.8790 117.2214 176 164 148 4
137.2357 20.6021 117.2214 176 164 148 4
137.4893 23.7853 117.2214 176 164 148 4
137.7095 26.9792 117.2214 176 164 148 4
140.5786 -0.3689 117.2214 176 164 148 4
140.7096 2.3145 117.2214 176 164 148 4
140.4910 5.3373 117.2214 176 164 148 4
140.2514 8.3298 117.2214 176 164 148 4
140.2666 11.4717 117.2214 176 164 148 4
140.5389 14.8875 117.2214 176 164 148 4
140.6174 17.5070 117.2214 176 164 148 4
140.3245 20.5320 117.2214 176 164 148 4
140.7219 23.8825 117.2214 176 164 148 4
140.2815 26.2780 117.2214 176 164 148 4
122.4366 -0.0186 133.1060 176 164 148 4
122.6150 2.3955 133.1060 176 164 148 4
122.6812 5.6902 133.1060 176 164 148 4
122.4366 8.3995 133.1060 176 164 148 4
122.5133 11.6276 133.1060 176 164 148 4
122.7445 14.8624 133.1060 176 164 148 4
122.5612 17.6850 133.1060 176 164 148 4
122.5942 20.6836 133.1060 176 164 148 4
122.4366 23.3983 133.1060 176 164 148 4
122.4366 26.7951 133.1060 176 164 148 4
125.5551 -0.2904 133.1060 176 164 148 4
125.1341 2.6557 133.1060 176 164 148 4
125.3737 5.6171 133.1060 176 164 148 4
125.5934 8.6893 133.1060 176 164 148 4
125.7723 11.3231 133.1060 176 164 148 4
125.7290 14.9288 133.1060 176 164 148 4
125.6020 17.4574 133.1060 176 164 148 4
125.0822 20.4971 133.1060 176 164 148 4
125.4512 23.7156 133.1060 176 164 148 4
125.3926 26.8167 133.1060 176 164 148 4
128.3111 -0.3342 133.1060 176 164 148 4
128.2833 2.7601 133.1060 176 164 148 4
128.3234 5.6997 133.1060 176 164 148 4
128.1696 8.6727 133.1060 176 164 148 4
128.1973 11.3036 133.1060 176 164 148 4
128.2359 14.6818 133.1060 176 164 148 4
128.2084 17.8337 133.1060 176 164 148 4
128.7355 20.3071 133.1060 176 164 148 4
128.4237 23.7475 133.1060 176 164 148 4
128.6814 26.9412 133.1060 176 164 148 4
131.1606 -0.0549 133.1060 176 164 148 4
131.4334 2.4645 133.1060 176 164 148 4
131.3324 5.5276 133.1060 176 164 148 4
131.2531 8.4510 133.1060 176 164 148 4
131.2735 11.7934 133.1060 176 164 148 4
131.6334 14.2866 133.1060 176 164 148 4
131.6671 17.4470 133.1060 176 164 148 4
131.6330 20.3025 133.1060 176 164 148 4
131.2875 23.6865 133.1060 176 164 148 4
