ply
format ascii 1.0
comment generated by citygen
element vertex 1232
property float x
property float y
property float z
property uchar red
property uchar green
property uchar blue
property int class
end_header
306.1200 4.8681 19.8147 176 164 148 4
311.4206 0.4571 19.8147 176 164 148 4
311.3345 5.8157 19.8147 176 164 148 4
286.4471 0.7081 47.7922 176 164 148 4
286.5814 5.6325 47.7922 176 164 148 4
291.8141 0.6620 47.7922 176 164 148 4
291.8955 5.0772 47.7922 176 164 148 4
296.7133 0.6142 47.7922 176 164 148 4
295.9246 5.7766 47.7922 176 164 148 4
301.1964 0.5616 47.7922 176 164 148 4
301.7257 5.6864 47.7922 176 164 148 4
305.7851 0.6798 47.7922 176 164 148 4
306.3323 5.7513 47.7922 176 164 148 4
311.2304 0.9780 47.7922 176 164 148 4
311.2390 5.8525 47.7922 176 164 148 4
288.4187 4.2124 106.4632 112 116 122 5
288.4187 4.2124 111.3279 112 116 122 5
288.9932 4.4939 115.6494 112 116 122 5
288.4187 4.2124 120.8025 112 116 122 5
289.0181 4.5061 125.5449 112 116 122 5
288.5937 4.2124 131.5207 112 116 122 5
293.6211 4.2580 106.2443 112 116 122 5
293.5642 6.1211 111.3466 112 116 122 5
293.4811 6.3102 115.9148 112 116 122 5
293.0900 6.2563 120.6654 112 116 122 5
292.9342 6.1389 126.2445 112 116 122 5
293.7622 4.2124 131.5207 112 116 122 5
298.3873 6.0806 126.4041 112 116 122 5
298.3967 4.4219 130.9469 112 116 122 5
303.0252 6.0971 126.3592 112 116 122 5
303.7353 4.2360 131.4561 112 116 122 5
288.4187 -0.5969 106.4969 176 164 148 4
288.4187 -0.5969 111.6376 176 164 148 4
288.4187 -0.1200 115.8006 176 164 148 4
288.4187 -0.5969 121.5126 176 164 148 4
294.8541 -0.5969 106.6559 176 164 148 4
294.8541 -0.5969 111.0338 176 164 148 4
294.8541 -0.0503 116.0286 176 164 148 4
294.8541 -0.2230 120.9611 176 164 148 4
288.6600 -0.2740 106.1194 176 164 148 4
293.3611 -0.5969 106.1194 176 164 148 4
288.4187 -0.3916 125.0852 176 164 148 4
288.4187 -0.4706 130.3101 176 164 148 4
288.4187 -0.5969 131.5207 176 164 148 4
293.0708 -0.3072 131.5207 176 164 148 4
307.3464 -0.5969 125.4259 176 164 148 4
307.3464 -0.5969 129.8536 176 164 148 4
294.8541 -0.3462 125.0852 176 164 148 4
299.6091 -0.5969 125.0852 176 164 148 4
304.8409 -0.5969 125.0852 176 164 148 4
294.8541 -0.1703 131.5207 176 164 148 4
299.4938 -0.5969 131.5207 176 164 148 4
304.3377 -0.5969 131.5207 176 164 148 4
279.5806 8.6720 267.7169 112 116 122 5
279.5806 8.6720 272.6873 112 116 122 5
285.1011 8.6720 267.7169 112 116 122 5
284.6418 10.6451 272.5275 112 116 122 5
289.9053 8.6720 267.7169 112 116 122 5
289.5364 10.7354 272.3613 112 116 122 5
294.0996 8.8278 268.0037 112 116 122 5
294.4823 10.7281 272.3747 112 116 122 5
299.1525 8.8740 268.0887 112 116 122 5
299.2607 10.3100 273.1441 112 116 122 5
279.5806 0.7022 267.7169 176 164 148 4
279.5806 5.0317 268.1641 176 164 148 4
279.5806 0.9283 272.5646 176 164 148 4
279.5806 5.9840 272.2827 176 164 148 4
304.1840 0.4001 267.7169 176 164 148 4
304.1840 5.9369 267.8310 176 164 148 4
304.1840 0.4001 272.8477 176 164 148 4
304.1840 5.4560 272.4841 176 164 148 4
279.7924 0.4001 267.7169 176 164 148 4
279.9819 5.8630 267.7169 176 164 148 4
284.8343 0.4001 267.7169 176 164 148 4
284.3091 5.1081 267.7169 176 164 148 4
290.1545 0.9910 267.7169 176 164 148 4
289.6771 5.2224 267.7169 176 164 148 4
294.2880 0.8156 267.7169 176 164 148 4
294.0873 4.9722 267.7169 176 164 148 4
299.2627 0.5871 267.7169 176 164 148 4
299.9638 5.2949 267.7169 176 164 148 4
280.0204 0.4001 276.1587 176 164 148 4
279.5806 5.0582 276.1587 176 164 148 4
284.8796 0.5036 276.1587 176 164 148 4
285.0562 5.2573 276.1587 176 164 148 4
289.4045 0.4001 276.1587 176 164 148 4
289.9410 4.8279 276.1587 176 164 148 4
294.3813 0.5627 276.1587 176 164 148 4
295.0547 5.8653 276.1587 176 164 148 4
299.2463 0.8454 276.1587 176 164 148 4
299.7619 5.7596 276.1587 176 164 148 4
30.9368 17.6134 22.2874 112 116 122 5
31.0621 20.9431 26.7272 112 116 122 5
31.2333 22.1629 32.1526 112 116 122 5
31.2210 22.1508 37.3002 112 116 122 5
31.5202 22.0416 42.1361 112 116 122 5
30.9368 18.6285 46.6871 112 116 122 5
35.4043 17.4546 22.0756 112 116 122 5
36.0263 21.2914 27.1917 112 116 122 5
35.7815 24.7507 31.8043 112 116 122 5
36.1358 25.6526 37.3213 112 116 122 5
35.5809 22.1388 42.0065 112 116 122 5
35.7775 18.6337 46.6803 112 116 122 5
41.1627 17.4546 22.0756 112 116 122 5
41.1765 21.1325 26.9798 112 116 122 5
41.2297 24.9237 32.0349 112 116 122 5
41.4935 25.8941 36.9992 112 116 122 5
41.4677 22.3798 41.6852 112 116 122 5
40.9405 17.9311 47.6171 112 116 122 5
46.4508 17.4546 22.0756 112 116 122 5
45.7819 21.1420 26.9924 112 116 122 5
45.4021 25.1390 32.3220 112 116 122 5
46.2784 26.1121 36.7086 112 116 122 5
45.6510 21.7613 42.5099 112 116 122 5
45.9474 18.4929 46.8680 112 116 122 5
50.3802 17.4546 22.0756 112 116 122 5
50.4055 21.4324 27.3796 112 116 122 5
51.2630 24.6206 31.6308 112 116 122 5
50.3444 25.7296 37.2186 112 116 122 5
51.5037 21.9726 42.2282 112 116 122 5
51.0193 18.6843 46.6127 112 116 122 5
56.1624 17.6218 22.2986 112 116 122 5
55.9370 20.9341 26.7153 112 116 122 5
56.2060 22.7631 31.6546 112 116 122 5
55.3649 23.5892 37.0279 112 116 122 5
55.7107 21.8219 42.4291 112 116 122 5
56.1900 18.7301 46.5517 112 116 122 5
30.9368 -0.4721 22.2125 176 164 148 4
30.9368 3.9316 22.3233 176 164 148 4
30.9368 9.2591 22.2104 176 164 148 4
30.9368 14.1923 22.0756 176 164 148 4
30.9368 -0.4538 26.9912 176 164 148 4
30.9368 4.1184 27.4480 176 164 148 4
30.9368 9.1900 27.1947 176 164 148 4
30.9368 13.9917 26.6110 176 164 148 4
30.9368 0.1226 32.1838 176 164 148 4
30.9368 4.1582 32.0034 176 164 148 4
30.9368 10.0513 32.1096 176 164 148 4
30.9368 14.9326 31.8474 176 164 148 4
30.9368 -0.0156 37.5305 176 164 148 4
30.9368 4.3436 37.0211 176 164 148 4
30.9368 9.9825 37.5695 176 164 148 4
30.9368 14.3241 37.0567 176 164 148 4
30.9368 -0.4721 41.7302 176 164 148 4
30.9368 4.4086 42.4577 176 164 148 4
30.9368 9.1224 41.5821 176 164 148 4
30.9368 14.3575 41.9229 176 164 148 4
30.9368 -0.0966 47.2947 176 164 148 4
30.9368 5.1257 47.4362 176 164 148 4
30.9368 9.9879 46.6060 176 164 148 4
30.9368 14.0166 46.9431 176 164 148 4
57.1137 -0.3908 22.1031 176 164 148 4
57.1137 3.9535 22.1797 176 164 148 4
57.1137 9.0541 22.0756 176 164 148 4
57.1137 14.6422 22.6589 176 164 148 4
57.1137 -0.4721 26.7180 176 164 148 4
57.1137 5.0708 26.5203 176 164 148 4
57.1137 9.9816 27.5651 176 164 148 4
57.1137 14.5256 27.0229 176 164 148 4
57.1137 -0.0097 31.5457 176 164 148 4
57.1137 4.5594 31.8153 176 164 148 4
57.1137 9.3579 31.8153 176 164 148 4
57.1137 14.9351 32.0934 176 164 148 4
57.1137 -0.4721 37.2628 176 164 148 4
57.1137 4.4144 36.5990 176 164 148 4
57.1137 9.4638 37.3085 176 164 148 4
57.1137 14.4253 37.2920 176 164 148 4
57.1137 -0.4721 42.2613 176 164 148 4
57.1137 4.5806 41.6797 176 164 148 4
57.1137 10.0946 42.2819 176 164 148 4
57.1137 14.7811 41.9354 176 164 148 4
57.1137 -0.4721 46.6105 176 164 148 4
57.1137 3.9703 47.1295 176 164 148 4
57.1137 9.1469 47.5349 176 164 148 4
57.1137 15.0126 47.1538 176 164 148 4
30.9368 -0.0272 22.0756 176 164 148 4
30.9368 4.5286 22.0756 176 164 148 4
30.9368 9.5160 22.0756 176 164 148 4
31.1212 14.1490 22.0756 176 164 148 4
36.1450 -0.4721 22.0756 176 164 148 4
35.4531 4.5608 22.0756 176 164 148 4
35.5176 9.7886 22.0756 176 164 148 4
36.2028 15.1187 22.0756 176 164 148 4
40.8380 -0.4721 22.0756 176 164 148 4
41.3216 4.2428 22.0756 176 164 148 4
41.0110 9.7284 22.0756 176 164 148 4
41.0650 14.5793 22.0756 176 164 148 4
46.4444 -0.4721 22.0756 176 164 148 4
46.2936 4.2193 22.0756 176 164 148 4
45.4883 9.6802 22.0756 176 164 148 4
45.7877 14.1984 22.0756 176 164 148 4
51.2565 -0.4721 22.0756 176 164 148 4
50.5529 4.7278 22.0756 176 164 148 4
51.0660 9.3082 22.0756 176 164 148 4
51.3597 14.6302 22.0756 176 164 148 4
55.4711 -0.1258 22.0756 176 164 148 4
55.4014 4.5767 22.0756 176 164 148 4
56.0620 9.3381 22.0756 176 164 148 4
55.6373 14.9120 22.0756 176 164 148 4
30.9368 -0.4721 48.2525 176 164 148 4
31.1913 4.4411 48.2525 176 164 148 4
30.9368 9.0758 48.2525 176 164 148 4
31.4659 14.9043 48.2525 176 164 148 4
35.7662 -0.4593 48.2525 176 164 148 4
35.9206 5.0702 48.2525 176 164 148 4
35.8606 9.3726 48.2525 176 164 148 4
36.2221 14.0730 48.2525 176 164 148 4
40.9475 -0.4721 48.2525 176 164 148 4
40.8552 4.2774 48.2525 176 164 148 4
40.8402 9.8182 48.2525 176 164 148 4
41.1997 13.9382 48.2525 176 164 148 4
46.4792 -0.4111 48.2525 176 164 148 4
46.4818 4.2777 48.2525 176 164 148 4
46.2039 9.5562 48.2525 176 164 148 4
45.9811 13.9793 48.2525 176 164 148 4
50.3981 -0.4721 48.2525 176 164 148 4
50.8455 4.1627 48.2525 176 164 148 4
50.7399 9.0688 48.2525 176 164 148 4
50.3421 14.1540 48.2525 176 164 148 4
56.1925 -0.4721 48.2525 176 164 148 4
56.0212 3.9367 48.2525 176 164 148 4
56.1284 9.2236 48.2525 176 164 148 4
56.4260 14.6399 48.2525 176 164 148 4
28.0566 9.1946 281.9307 112 116 122 5
28.2458 10.9057 286.7733 112 116 122 5
28.1962 12.5787 291.5082 112 116 122 5
28.0566 14.2862 296.3406 112 116 122 5
28.4464 12.7552 301.6384 112 116 122 5
28.0566 10.9295 306.8054 112 116 122 5
32.7997 9.1946 281.9307 112 116 122 5
33.3052 10.8080 286.4970 112 116 122 5
32.4797 12.6667 291.7572 112 116 122 5
33.5160 14.3339 297.1704 112 116 122 5
32.7947 12.6880 301.8285 112 116 122 5
33.4403 10.7927 307.1927 112 116 122 5
37.5413 9.1946 281.9307 112 116 122 5
38.5120 11.0900 287.2950 112 116 122 5
38.3240 12.8567 292.2950 112 116 122 5
37.9727 14.3089 297.2413 112 116 122 5
37.8904 12.4674 302.4530 112 116 122 5
38.5855 10.9426 306.7682 112 116 122 5
43.0439 9.1946 281.9307 112 116 122 5
42.6584 11.1039 287.3343 112 116 122 5
42.5946 10.6940 307.4720 112 116 122 5
47.4996 9.1946 281.9307 112 116 122 5
47.8154 11.0366 287.1437 112 116 122 5
47.6866 10.9698 306.6913 112 116 122 5
52.5858 9.2442 282.0711 112 116 122 5
52.5644 11.1548 287.4782 112 116 122 5
53.2803 10.9498 306.7481 112 116 122 5
58.0775 9.1946 281.9307 112 116 122 5
58.2985 10.8736 286.6824 112 116 122 5
57.8951 12.7611 292.0245 112 116 122 5
57.8638 14.3935 297.0018 112 116 122 5
58.2722 12.4596 302.4751 112 116 122 5
57.6524 11.0803 306.3786 112 116 122 5
62.5073 9.3632 282.4079 112 116 122 5
63.3874 10.8169 286.5219 112 116 122 5
63.5599 12.7015 291.8557 112 116 122 5
62.5448 14.4097 296.9560 112 116 122 5
63.3237 12.5763 302.1448 112 116 122 5
63.1332 10.8799 306.9458 112 116 122 5
28.0566 0.4089 282.4006 176 164 148 4
28.0566 4.5170 282.1317 176 164 148 4
28.0566 -0.1601 286.8644 176 164 148 4
28.0566 4.6895 286.4600 176 164 148 4
28.3287 -0.1601 281.9307 176 164 148 4
28.0566 4.2801 281.9307 176 164 148 4
32.8764 0.1861 281.9307 176 164 148 4
32.4815 4.8007 281.9307 176 164 148 4
38.5479 -0.1601 281.9307 176 164 148 4
38.1214 4.3919 281.9307 176 164 148 4
28.0566 -0.1437 290.9070 176 164 148 4
28.0566 4.9196 290.5683 176 164 148 4
28.0566 0.1160 295.3516 176 164 148 4
28.0566 4.4408 296.1459 176 164 148 4
28.0566 -0.1601 300.5034 176 164 148 4
28.0566 5.0157 300.3897 176 164 148 4
38.9364 0.1382 290.5683 176 164 148 4
38.9364 4.6863 290.7618 176 164 148 4
38.9364 -0.1601 295.0119 176 164 148 4
38.9364 4.9197 295.1826 176 164 148 4
38.9364 -0.1601 300.4006 176 164 148 4
38.9364 4.7680 300.7571 176 164 148 4
28.0566 -0.1415 303.0778 176 164 148 4
28.0566 5.0158 303.3977 176 164 148 4
28.0566 0.3114 308.0693 176 164 148 4
28.0566 4.4263 308.2928 176 164 148 4
28.4902 -0.1601 311.7153 176 164 148 4
28.0566 4.8237 311.7153 176 164 148 4
32.6267 0.3618 311.7153 176 164 148 4
33.5492 4.4567 311.7153 176 164 148 4
37.9092 -0.1601 311.7153 176 164 148 4
37.8965 4.3416 311.7153 176 164 148 4
39.0086 -0.1601 281.9307 176 164 148 4
38.9364 5.1539 281.9307 176 164 148 4
44.0018 0.3554 281.9307 176 164 148 4
44.4034 4.6587 281.9307 176 164 148 4
49.2660 -0.1601 281.9307 176 164 148 4
48.5072 5.0628 281.9307 176 164 148 4
53.7111 0.2525 281.9307 176 164 148 4
53.6447 4.6699 281.9307 176 164 148 4
38.9364 -0.1601 290.5683 176 164 148 4
39.3527 4.2413 290.5683 176 164 148 4
43.9982 0.1735 290.5683 176 164 148 4
43.8760 5.3947 290.5683 176 164 148 4
49.4639 0.1604 290.5683 176 164 148 4
49.4414 4.8847 290.5683 176 164 148 4
53.5734 0.3385 290.5683 176 164 148 4
54.4215 5.4328 290.5683 176 164 148 4
38.9364 -0.1601 303.0778 176 164 148 4
39.3623 4.4236 303.0778 176 164 148 4
43.8856 -0.1601 303.0778 176 164 148 4
43.8252 4.9476 303.0778 176 164 148 4
49.0625 -0.1090 303.0778 176 164 148 4
49.0747 4.3547 303.0778 176 164 148 4
53.8830 -0.1601 303.0778 176 164 148 4
53.5901 5.4144 303.0778 176 164 148 4
38.9364 -0.1601 311.7153 176 164 148 4
39.4098 4.8467 311.7153 176 164 148 4
43.9815 -0.1260 311.7153 176 164 148 4
43.7021 5.2475 311.7153 176 164 148 4
49.3667 0.1460 311.7153 176 164 148 4
48.3739 5.1746 311.7153 176 164 148 4
54.1009 -0.1601 311.7153 176 164 148 4
54.5001 4.5614 311.7153 176 164 148 4
65.5731 -0.1601 282.4589 176 164 148 4
65.5731 5.0136 282.1213 176 164 148 4
65.5731 -0.0130 286.9644 176 164 148 4
65.5731 4.3389 287.4152 176 164 148 4
55.1589 -0.1601 281.9307 176 164 148 4
54.6933 5.2635 281.9307 176 164 148 4
59.5232 -0.1601 281.9307 176 164 148 4
59.5028 4.3828 281.9307 176 164 148 4
65.1793 0.3015 281.9307 176 164 148 4
64.7860 4.5366 281.9307 176 164 148 4
54.6933 0.0320 290.8809 176 164 148 4
54.6933 5.0902 290.9807 176 164 148 4
54.6933 0.1134 295.0999 176 164 148 4
54.6933 5.0133 295.2090 176 164 148 4
54.6933 -0.1601 300.2757 176 164 148 4
54.6933 5.0204 300.8348 176 164 148 4
65.5731 -0.1601 290.8542 176 164 148 4
65.5731 5.0546 290.5683 176 164 148 4
65.5731 0.2301 296.0027 176 164 148 4
65.5731 5.0990 295.5159 176 164 148 4
65.5731 -0.1601 300.7908 176 164 148 4
65.5731 4.3318 300.4320 176 164 148 4
65.5731 -0.1601 303.1108 176 164 148 4
65.5731 4.5671 303.3028 176 164 148 4
65.5731 -0.1601 307.9803 176 164 148 4
65.5731 4.4971 308.3155 176 164 148 4
54.8116 -0.1601 311.7153 176 164 148 4
54.6933 4.3871 311.7153 176 164 148 4
59.7977 0.0700 311.7153 176 164 148 4
60.0978 5.4333 311.7153 176 164 148 4
64.2537 -0.1601 311.7153 176 164 148 4
64.5433 4.4262 311.7153 176 164 148 4
32.9973 29.0891 102.3562 112 116 122 5
33.2069 32.3223 107.8311 112 116 122 5
33.4442 35.1675 112.6492 112 116 122 5
38.5693 29.2427 102.6162 112 116 122 5
38.4196 32.3132 107.8158 112 116 122 5
37.5109 35.3344 112.9317 112 116 122 5
43.2274 29.0995 102.3737 112 116 122 5
43.5509 32.1482 107.5362 112 116 122 5
43.0793 34.8754 112.1546 112 116 122 5
43.3549 37.6967 116.9320 112 116 122 5
47.9123 29.0891 102.3562 112 116 122 5
48.3562 32.3940 107.9526 112 116 122 5
48.4627 34.9170 112.2249 112 116 122 5
48.0451 38.2892 117.9353 112 116 122 5
47.6258 35.8290 122.2479 112 116 122 5
48.2022 32.6538 127.6247 112 116 122 5
47.9639 29.5850 132.8213 112 116 122 5
52.9506 29.0891 102.3562 112 116 122 5
52.4754 32.2527 107.7133 112 116 122 5
52.6203 34.7836 111.9990 112 116 122 5
53.0299 37.8744 117.2329 112 116 122 5
53.0556 36.0456 121.8811 112 116 122 5
53.0305 33.1387 126.8036 112 116 122 5
52.4924 29.9726 132.1649 112 116 122 5
58.4823 29.0891 102.3562 112 116 122 5
57.4415 32.1151 107.4803 112 116 122 5
58.0565 35.2399 112.7718 112 116 122 5
62.7214 29.3561 102.8083 112 116 122 5
63.5467 31.7823 106.9168 112 116 122 5
62.6396 34.9488 112.2788 112 116 122 5
32.9973 0.7672 102.8018 176 164 148 4
32.9973 5.3052 102.4292 176 164 148 4
32.9973 9.9751 102.3562 176 164 148 4
32.9973 15.4170 102.3562 176 164 148 4
32.9973 20.8283 102.3562 176 164 148 4
32.9973 25.4541 102.3562 176 164 148 4
32.9973 0.3725 107.8530 176 164 148 4
32.9973 5.7260 107.3948 176 164 148 4
32.9973 9.9083 107.4020 176 164 148 4
32.9973 15.0789 107.8704 176 164 148 4
32.9973 20.3690 107.2411 176 164 148 4
32.9973 25.5609 107.2864 176 164 148 4
32.9973 0.3725 111.9404 176 164 148 4
32.9973 4.8411 112.3106 176 164 148 4
32.9973 10.9410 112.4916 176 164 148 4
32.9973 15.4036 112.6022 176 164 148 4
32.9973 20.0902 111.9937 176 164 148 4
32.9973 25.3069 111.8000 176 164 148 4
33.4303 0.3787 102.3562 176 164 148 4
32.9973 5.2452 102.3562 176 164 148 4
33.4903 9.9064 102.3562 176 164 148 4
32.9973 14.9525 102.3562 176 164 148 4
33.4271 20.4263 102.3562 176 164 148 4
32.9973 25.8101 102.3562 176 164 148 4
38.3628 0.3725 102.3562 176 164 148 4
37.5822 5.9009 102.3562 176 164 148 4
37.7116 10.6478 102.3562 176 164 148 4
38.0733 15.0248 102.3562 176 164 148 4
38.0305 20.8120 102.3562 176 164 148 4
38.4355 25.2049 102.3562 176 164 148 4
42.9913 0.7658 102.3562 176 164 148 4
42.9773 5.1331 102.3562 176 164 148 4
42.9767 10.8541 102.3562 176 164 148 4
42.9911 15.3804 102.3562 176 164 148 4
43.1842 20.7052 102.3562 176 164 148 4
42.4656 25.6002 102.3562 176 164 148 4
33.0095 0.3725 112.9998 176 164 148 4
33.1505 4.8251 112.9998 176 164 148 4
32.9973 9.9438 112.9998 176 164 148 4
33.2612 14.8879 112.9998 176 164 148 4
32.9973 20.5326 112.9998 176 164 148 4
33.2002 24.9081 112.9998 176 164 148 4
37.8427 0.9309 112.9998 176 164 148 4
37.7172 5.0819 112.9998 176 164 148 4
37.6255 10.0724 112.9998 176 164 148 4
37.9722 15.8824 112.9998 176 164 148 4
38.5107 20.0775 112.9998 176 164 148 4
38.1613 25.8106 112.9998 176 164 148 4
42.7297 0.3725 112.9998 176 164 148 4
42.9272 5.1982 112.9998 176 164 148 4
42.7250 10.0453 112.9998 176 164 148 4
42.4567 15.0609 112.9998 176 164 148 4
43.3441 20.5606 112.9998 176 164 148 4
43.3441 25.4661 112.9998 176 164 148 4
43.3441 0.5305 102.3562 176 164 148 4
43.7020 5.2877 102.3562 176 164 148 4
43.3441 9.9226 102.3562 176 164 148 4
43.5111 14.7987 102.3562 176 164 148 4
43.3441 19.8944 102.3562 176 164 148 4
43.3441 25.3058 102.3562 176 164 148 4
48.6584 0.6958 102.3562 176 164 148 4
47.9791 5.7557 102.3562 176 164 148 4
47.8585 10.1137 102.3562 176 164 148 4
48.5375 15.4549 102.3562 176 164 148 4
47.7939 19.9197 102.3562 176 164 148 4
48.2482 25.6295 102.3562 176 164 148 4
53.1781 0.9087 102.3562 176 164 148 4
52.9810 5.2331 102.3562 176 164 148 4
53.2676 10.0866 102.3562 176 164 148 4
53.8562 15.2553 102.3562 176 164 148 4
53.7024 20.7040 102.3562 176 164 148 4
53.5609 25.3167 102.3562 176 164 148 4
43.3441 0.5413 113.0779 176 164 148 4
43.3441 5.0426 112.9998 176 164 148 4
43.3441 10.4633 112.9998 176 164 148 4
43.3441 15.3843 113.4098 176 164 148 4
43.3441 20.4430 112.9998 176 164 148 4
43.3441 25.5236 113.3852 176 164 148 4
43.3441 0.5618 117.7639 176 164 148 4
43.3441 4.8073 117.4109 176 164 148 4
43.3441 10.5308 117.5764 176 164 148 4
43.3441 15.5310 118.5666 176 164 148 4
43.3441 20.4443 118.0849 176 164 148 4
43.3441 25.3111 117.9011 176 164 148 4
43.3441 0.5670 122.5405 176 164 148 4
43.3441 5.2714 122.4439 176 164 148 4
43.3441 9.7819 123.0002 176 164 148 4
43.3441 15.3486 123.1871 176 164 148 4
43.3441 19.8501 123.4444 176 164 148 4
43.3441 25.8165 123.5362 176 164 148 4
43.3441 0.3725 127.8240 176 164 148 4
43.3441 5.7982 128.2620 176 164 148 4
43.3441 10.0928 127.6844 176 164 148 4
43.3441 15.4539 127.6012 176 164 148 4
43.3441 20.8982 127.7990 176 164 148 4
43.3441 25.2861 127.7196 176 164 148 4
43.3441 0.3725 133.4256 176 164 148 4
43.3441 5.8764 132.4343 176 164 148 4
43.3441 9.9612 132.5558 176 164 148 4
43.3441 15.7892 132.4462 176 164 148 4
43.3441 19.8144 133.4325 176 164 148 4
43.3441 24.8192 132.7240 176 164 148 4
53.9878 0.3725 112.9998 176 164 148 4
53.9878 5.1388 112.9998 176 164 148 4
53.9878 10.7698 113.5411 176 164 148 4
53.9878 15.8673 113.0210 176 164 148 4
53.9878 20.2571 113.3760 176 164 148 4
53.9878 25.4727 113.4305 176 164 148 4
53.9878 0.7439 117.4281 176 164 148 4
53.9878 5.2092 117.7747 176 164 148 4
53.9878 10.9220 117.9828 176 164 148 4
53.9878 15.1636 117.8298 176 164 148 4
53.9878 20.6470 117.8741 176 164 148 4
53.9878 25.3708 118.1156 176 164 148 4
53.9878 0.3725 122.6055 176 164 148 4
53.9878 5.0013 123.4910 176 164 148 4
53.9878 9.9460 123.3758 176 164 148 4
53.9878 15.8118 122.5948 176 164 148 4
53.9878 19.8934 122.5926 176 164 148 4
53.9878 24.7760 122.7952 176 164 148 4
53.9878 0.3725 128.3462 176 164 148 4
53.9878 5.0469 127.7769 176 164 148 4
53.9878 10.2080 128.1006 176 164 148 4
53.9878 14.7987 128.2463 176 164 148 4
53.9878 19.9943 128.4886 176 164 148 4
53.9878 25.3770 127.5152 176 164 148 4
53.9878 0.3725 132.7242 176 164 148 4
53.9878 4.8072 133.1326 176 164 148 4
53.9878 9.7966 133.4365 176 164 148 4
53.9878 15.3505 132.5073 176 164 148 4
53.9878 20.2852 132.8125 176 164 148 4
53.9878 24.9351 133.1429 176 164 148 4
43.7702 0.3725 133.6610 176 164 148 4
43.3441 5.8529 133.6610 176 164 148 4
43.3441 10.3068 133.6610 176 164 148 4
43.3441 15.8632 133.6610 176 164 148 4
43.3441 20.3910 133.6610 176 164 148 4
43.8086 24.7971 133.6610 176 164 148 4
48.1732 0.3725 133.6610 176 164 148 4
48.0445 5.4862 133.6610 176 164 148 4
47.9620 10.8750 133.6610 176 164 148 4
48.0706 15.8277 133.6610 176 164 148 4
48.6712 20.6870 133.6610 176 164 148 4
47.9159 25.2472 133.6610 176 164 148 4
53.6341 0.3725 133.6610 176 164 148 4
53.4077 5.1699 133.6610 176 164 148 4
53.3137 9.8055 133.6610 176 164 148 4
53.0187 15.6638 133.6610 176 164 148 4
53.8145 20.7924 133.6610 176 164 148 4
53.4829 25.9353 133.6610 176 164 148 4
64.3345 0.8671 102.9236 176 164 148 4
64.3345 5.2985 102.8879 176 164 148 4
64.3345 10.4639 102.3562 176 164 148 4
64.3345 15.4090 102.3562 176 164 148 4
64.3345 20.3188 102.5425 176 164 148 4
64.3345 25.6658 102.7476 176 164 148 4
64.3345 0.3725 106.7572 176 164 148 4
64.3345 4.9159 107.0500 176 164 148 4
64.3345 10.1138 107.0184 176 164 148 4
64.3345 15.2552 107.0393 176 164 148 4
64.3345 20.0160 107.8752 176 164 148 4
64.3345 25.1592 106.9492 176 164 148 4
64.3345 0.3725 112.2412 176 164 148 4
64.3345 5.8176 112.7343 176 164 148 4
64.3345 10.1272 112.0661 176 164 148 4
64.3345 15.1819 112.2889 176 164 148 4
64.3345 19.9969 112.5334 176 164 148 4
64.3345 25.3547 112.0411 176 164 148 4
53.9878 0.8853 102.3562 176 164 148 4
53.9878 4.7823 102.3562 176 164 148 4
54.0109 10.9513 102.3562 176 164 148 4
53.9878 15.9473 102.3562 176 164 148 4
54.3325 19.8104 102.3562 176 164 148 4
53.9878 25.2801 102.3562 176 164 148 4
58.6465 0.5984 102.3562 176 164 148 4
59.1973 5.6765 102.3562 176 164 148 4
59.1912 10.6397 102.3562 176 164 148 4
58.8254 15.1892 102.3562 176 164 148 4
59.1460 20.1332 102.3562 176 164 148 4
58.5342 24.9259 102.3562 176 164 148 4
63.7375 0.4659 102.3562 176 164 148 4
64.3345 5.5211 102.3562 176 164 148 4
63.8845 10.7425 102.3562 176 164 148 4
63.8027 14.8091 102.3562 176 164 148 4
63.4347 20.0149 102.3562 176 164 148 4
63.4547 25.0844 102.3562 176 164 148 4
54.0239 0.3725 112.9998 176 164 148 4
54.5739 4.9642 112.9998 176 164 148 4
54.2779 10.9287 112.9998 176 164 148 4
53.9878 14.8155 112.9998 176 164 148 4
54.4865 20.0045 112.9998 176 164 148 4
54.1769 25.0187 112.9998 176 164 148 4
59.2707 0.9001 112.9998 176 164 148 4
59.0354 5.2156 112.9998 176 164 148 4
58.8595 10.3965 112.9998 176 164 148 4
59.2961 15.3201 112.9998 176 164 148 4
58.5142 19.8972 112.9998 176 164 148 4
58.8834 25.9634 112.9998 176 164 148 4
63.9242 0.6753 112.9998 176 164 148 4
64.2889 5.4746 112.9998 176 164 148 4
63.3945 10.3634 112.9998 176 164 148 4
64.3345 14.8224 112.9998 176 164 148 4
64.1644 20.3933 112.9998 176 164 148 4
64.3345 25.8166 112.9998 176 164 148 4
34.6360 28.4732 192.6393 112 116 122 5
35.1037 28.7497 197.9159 112 116 122 5
35.1260 28.7628 202.3149 112 116 122 5
34.9397 28.6527 207.5986 112 116 122 5
34.5484 28.4214 212.5252 112 116 122 5
34.5484 28.4214 217.1568 112 116 122 5
39.8783 30.1435 192.6393 112 116 122 5
39.8938 30.1343 197.3949 112 116 122 5
39.3261 30.4699 202.1754 112 116 122 5
39.6930 30.2530 207.3120 112 116 122 5
39.4220 30.4132 212.8633 112 116 122 5
39.3679 30.4452 217.4340 112 116 122 5
34.5484 0.1294 192.6393 176 164 148 4
34.5484 5.1727 192.9171 176 164 148 4
34.5484 9.5829 193.1900 176 164 148 4
34.5484 14.4602 192.6393 176 164 148 4
34.5484 20.0797 192.6393 176 164 148 4
34.5484 24.9987 192.9045 176 164 148 4
34.5484 0.1529 197.8913 176 164 148 4
34.5484 4.3372 197.7183 176 164 148 4
34.5484 10.0804 197.4506 176 164 148 4
34.5484 14.4194 197.3647 176 164 148 4
34.5484 20.2771 197.7435 176 164 148 4
34.5484 25.0552 197.9049 176 164 148 4
34.5484 -0.0302 202.1301 176 164 148 4
34.5484 4.7117 202.6132 176 164 148 4
34.5484 9.8986 203.0945 176 164 148 4
34.5484 14.4659 202.7337 176 164 148 4
34.5484 19.2997 202.5639 176 164 148 4
34.5484 24.7046 202.2933 176 164 148 4
34.5484 -0.3017 207.6984 176 164 148 4
34.5484 4.2143 207.3462 176 164 148 4
34.5484 10.1091 207.2837 176 164 148 4
34.5484 14.8649 207.7879 176 164 148 4
34.5484 19.4974 207.9900 176 164 148 4
34.5484 24.5239 207.3556 176 164 148 4
34.5484 -0.0993 212.2677 176 164 148 4
34.5484 5.2902 212.6776 176 164 148 4
34.5484 9.1489 212.6400 176 164 148 4
34.5484 14.2444 213.2110 176 164 148 4
34.5484 19.5060 212.8714 176 164 148 4
34.5484 24.5049 213.1581 176 164 148 4
34.5484 -0.3017 217.5771 176 164 148 4
34.5484 5.1306 217.3550 176 164 148 4
34.5484 9.1052 217.4331 176 164 148 4
34.5484 14.3806 217.4324 176 164 148 4
34.5484 20.1355 217.1060 176 164 148 4
34.5484 25.1004 217.4157 176 164 148 4
42.7916 -0.1494 192.8126 176 164 148 4
42.7916 4.7568 192.6393 176 164 148 4
42.7916 9.1267 192.6393 176 164 148 4
42.7916 15.1826 193.1720 176 164 148 4
42.7916 19.1475 192.6393 176 164 148 4
42.7916 24.3164 192.6393 176 164 148 4
42.7916 -0.3017 197.4326 176 164 148 4
42.7916 4.7614 197.7343 176 164 148 4
42.7916 10.1741 197.1345 176 164 148 4
42.7916 14.8025 197.8444 176 164 148 4
42.7916 19.4437 197.3070 176 164 148 4
42.7916 24.6661 197.2473 176 164 148 4
42.7916 0.0183 202.4941 176 164 148 4
42.7916 4.4994 203.0228 176 164 148 4
42.7916 10.2976 202.1194 176 164 148 4
42.7916 14.5163 202.9207 176 164 148 4
42.7916 19.3482 202.7011 176 164 148 4
42.7916 25.2856 202.5897 176 164 148 4
42.7916 -0.3017 207.5866 176 164 148 4
42.7916 4.3756 207.1150 176 164 148 4
42.7916 10.1030 208.1389 176 164 148 4
42.7916 14.1856 207.7581 176 164 148 4
42.7916 19.7378 207.3887 176 164 148 4
42.7916 24.2695 207.5739 176 164 148 4
42.7916 -0.3017 212.1170 176 164 148 4
42.7916 4.5135 212.8349 176 164 148 4
42.7916 9.4983 212.1510 176 164 148 4
42.7916 14.8051 212.4310 176 164 148 4
42.7916 19.6424 212.3444 176 164 148 4
42.7916 25.1058 212.3708 176 164 148 4
42.7916 0.1344 217.4524 176 164 148 4
42.7916 4.7865 217.6634 176 164 148 4
42.7916 10.0050 217.9363 176 164 148 4
42.7916 14.3497 217.9945 176 164 148 4
42.7916 19.5826 218.0321 176 164 148 4
42.7916 24.2178 217.9004 176 164 148 4
34.7080 0.0379 192.6393 176 164 148 4
34.5484 5.0555 192.6393 176 164 148 4
34.9081 9.5504 192.6393 176 164 148 4
34.5484 15.0588 192.6393 176 164 148 4
34.6618 19.6324 192.6393 176 164 148 4
34.8540 24.1823 192.6393 176 164 148 4
39.0510 -0.2790 192.6393 176 164 148 4
38.9757 4.2406 192.6393 176 164 148 4
39.0808 9.1720 192.6393 176 164 148 4
40.1242 14.8671 192.6393 176 164 148 4
39.1997 19.9273 192.6393 176 164 148 4
39.4392 24.3133 192.6393 176 164 148 4
34.5484 -0.0052 218.9180 176 164 148 4
35.1183 4.3601 218.9180 176 164 148 4
34.6010 9.7527 218.9180 176 164 148 4
34.5484 14.5525 218.9180 176 164 148 4
34.5484 19.9966 218.9180 176 164 148 4
34.5484 24.3573 218.9180 176 164 148 4
39.3325 -0.3017 218.9180 176 164 148 4
40.0967 4.9584 218.9180 176 164 148 4
39.6943 10.0415 218.9180 176 164 148 4
40.0820 14.3878 218.9180 176 164 148 4
39.2645 19.2348 218.9180 176 164 148 4
39.9150 25.2880 218.9180 176 164 148 4
96.3825 5.2966 273.5550 112 116 122 5
96.1804 5.2715 278.0871 112 116 122 5
96.1804 5.2715 282.9129 112 116 122 5
96.1804 5.2715 288.6724 112 116 122 5
96.1804 5.2715 293.1592 112 116 122 5
100.8705 5.2715 273.4475 112 116 122 5
101.2554 6.3132 277.9017 112 116 122 5
101.1238 6.9673 283.0597 112 116 122 5
101.0452 6.9403 288.9227 112 116 122 5
100.8503 5.9910 293.8059 112 116 122 5
105.7206 5.2715 273.4475 112 116 122 5
105.6543 6.4313 278.4066 112 116 122 5
105.5970 7.5221 283.6290 112 116 122 5
106.2122 7.1244 288.9599 112 116 122 5
106.2169 5.9347 294.0469 112 116 122 5
111.4839 5.3233 273.6691 112 116 122 5
111.7552 5.4095 278.3022 112 116 122 5
111.2458 5.5843 282.9764 112 116 122 5
111.1071 5.6319 288.8627 112 116 122 5
111.5271 5.4878 293.0972 112 116 122 5
96.1804 0.9380 273.4475 176 164 148 4
96.1804 0.4620 277.8641 176 164 148 4
96.1804 0.3997 283.7778 176 164 148 4
96.1804 0.3997 287.9069 176 164 148 4
96.1804 0.3997 293.6717 176 164 148 4
112.1576 0.3997 273.8704 176 164 148 4
112.1576 0.7008 278.3086 176 164 148 4
112.1576 0.3997 283.4045 176 164 148 4
112.1576 0.6173 288.1806 176 164 148 4
112.1576 0.3997 294.0002 176 164 148 4
96.1804 0.3997 273.4475 176 164 148 4
101.0841 0.8281 273.4475 176 164 148 4
106.0461 0.8248 273.4475 176 164 148 4
111.6203 0.3997 273.4475 176 164 148 4
96.1804 0.3997 296.8824 176 164 148 4
101.5331 0.3997 296.8824 176 164 148 4
105.8470 0.7124 296.8824 176 164 148 4
110.7369 0.8100 296.8824 176 164 148 4
96.2112 16.8664 94.5822 112 116 122 5
96.1218 16.7645 99.4597 112 116 122 5
96.1833 16.8347 104.6166 112 116 122 5
96.2908 16.9572 109.2029 112 116 122 5
100.3034 16.7292 94.3522 112 116 122 5
100.2926 20.6152 99.1138 112 116 122 5
100.7265 20.7544 104.3289 112 116 122 5
101.1624 16.8540 109.6312 112 116 122 5
106.0395 16.5298 94.1772 112 116 122 5
105.4246 20.7606 99.0070 112 116 122 5
106.2036 20.9487 104.4995 112 116 122 5
106.1875 17.2401 109.2924 112 116 122 5
111.2987 16.4702 94.1249 112 116 122 5
111.1802 17.0701 99.5528 112 116 122 5
110.3362 18.0319 104.0781 112 116 122 5
110.6093 17.7207 108.6066 112 116 122 5
95.8635 -0.1138 94.6793 176 164 148 4
95.8635 4.1393 94.2638 176 164 148 4
95.8635 9.4199 94.1249 176 164 148 4
95.8635 14.6518 94.2348 176 164 148 4
95.8635 0.1689 99.1112 176 164 148 4
95.8635 4.3201 99.6346 176 164 148 4
95.8635 9.2754 98.8962 176 164 148 4
95.8635 15.1567 99.2751 176 164 148 4
95.8635 -0.3915 104.5617 176 164 148 4
95.8635 4.5736 104.4524 176 164 148 4
95.8635 9.6053 103.5676 176 164 148 4
95.8635 14.7124 103.5282 176 164 148 4
95.8635 -0.2713 109.5314 176 164 148 4
95.8635 4.1129 109.3939 176 164 148 4
95.8635 10.0316 109.6989 176 164 148 4
95.8635 14.7596 108.8416 176 164 148 4
111.7066 -0.3915 94.1249 176 164 148 4
111.7066 4.3508 94.1249 176 164 148 4
111.7066 9.3606 94.1249 176 164 148 4
111.7066 14.5002 94.1249 176 164 148 4
111.7066 -0.1848 99.2396 176 164 148 4
111.7066 4.4042 99.5385 176 164 148 4
111.7066 9.1308 99.5545 176 164 148 4
111.7066 14.7708 98.9488 176 164 148 4
111.7066 -0.3915 103.5758 176 164 148 4
111.7066 4.2095 104.1167 176 164 148 4
111.7066 9.2182 104.1480 176 164 148 4
111.7066 15.1470 103.5308 176 164 148 4
111.7066 -0.3915 109.6581 176 164 148 4
111.7066 4.6291 109.1963 176 164 148 4
111.7066 9.9408 109.2873 176 164 148 4
111.7066 14.4750 109.4099 176 164 148 4
96.1794 -0.1231 94.1249 176 164 148 4
95.8635 4.8587 94.1249 176 164 148 4
95.8635 9.0412 94.1249 176 164 148 4
95.9186 15.0457 94.1249 176 164 148 4
100.7844 -0.3523 94.1249 176 164 148 4
101.1683 4.4524 94.1249 176 164 148 4
101.3217 9.7382 94.1249 176 164 148 4
100.5800 14.6919 94.1249 176 164 148 4
105.8539 -0.3915 94.1249 176 164 148 4
106.0924 4.7736 94.1249 176 164 148 4
106.2826 9.7207 94.1249 176 164 148 4
105.5740 15.1660 94.1249 176 164 148 4
111.2738 -0.3915 94.1249 176 164 148 4
111.0591 4.4459 94.1249 176 164 148 4
110.5494 9.5377 94.1249 176 164 148 4
110.2966 14.3357 94.1249 176 164 148 4
96.0311 -0.3915 109.9680 176 164 148 4
95.9956 4.7206 109.9680 176 164 148 4
95.9412 9.2577 109.9680 176 164 148 4
95.8635 14.8800 109.9680 176 164 148 4
100.4814 -0.3915 109.9680 176 164 148 4
100.4975 5.1155 109.9680 176 164 148 4
101.3737 10.1930 109.9680 176 164 148 4
100.5251 15.0080 109.9680 176 164 148 4
105.4445 -0.3915 109.9680 176 164 148 4
105.3231 4.2312 109.9680 176 164 148 4
106.1624 9.2379 109.9680 176 164 148 4
106.2550 14.2503 109.9680 176 164 148 4
111.1271 -0.3915 109.9680 176 164 148 4
110.2916 4.5101 109.9680 176 164 148 4
110.8792 9.0398 109.9680 176 164 148 4
111.0813 14.5457 109.9680 176 164 148 4
120.5377 24.9304 29.0795 112 116 122 5
120.2995 24.7115 34.1416 112 116 122 5
120.4342 24.8352 38.2002 112 116 122 5
120.2995 24.7115 43.6877 112 116 122 5
125.8717 24.8699 28.8855 112 116 122 5
125.1841 28.5068 33.8926 112 116 122 5
125.6577 28.6294 39.2509 112 116 122 5
125.0503 25.4201 43.2912 112 116 122 5
130.0575 24.7115 28.7420 112 116 122 5
130.1921 28.9650 34.2803 112 116 122 5
129.9283 28.7564 39.0653 112 116 122 5
130.0148 24.7889 43.8627 112 116 122 5
135.6519 25.0064 29.0090 112 116 122 5
135.4098 27.6001 34.1282 112 116 122 5
135.5789 27.4447 38.6786 112 116 122 5
134.8332 25.0433 43.6324 112 116 122 5
120.2995 0.5871 28.9544 176 164 148 4
120.2995 5.1647 29.2913 176 164 148 4
120.2995 10.0238 29.2389 176 164 148 4
120.2995 15.3882 29.0827 176 164 148 4
120.2995 21.0102 28.7420 176 164 148 4
120.2995 0.7324 33.5933 176 164 148 4
120.2995 5.6737 34.2275 176 164 148 4
120.2995 10.0824 33.1737 176 164 148 4
120.2995 15.2464 33.7251 176 164 148 4
120.2995 20.7237 33.3016 176 164 148 4
120.2995 0.5871 38.4858 176 164 148 4
120.2995 5.8716 38.1614 176 164 148 4
120.2995 10.5107 39.1268 176 164 148 4
120.2995 15.5839 39.0244 176 164 148 4
120.2995 20.0593 38.7548 176 164 148 4
120.2995 0.5871 43.3914 176 164 148 4
120.2995 5.9496 43.2288 176 164 148 4
120.2995 10.7384 43.9203 176 164 148 4
120.2995 15.1044 43.2972 176 164 148 4
120.2995 20.1445 43.9328 176 164 148 4
138.5526 1.0254 28.7420 176 164 148 4
138.5526 5.9380 29.2730 176 164 148 4
138.5526 10.8645 29.2233 176 164 148 4
138.5526 15.1165 29.2193 176 164 148 4
138.5526 20.2004 29.0245 176 164 148 4
138.5526 0.5871 34.2286 176 164 148 4
138.5526 5.4152 33.3120 176 164 148 4
138.5526 10.6789 33.8150 176 164 148 4
138.5526 15.9837 33.6634 176 164 148 4
138.5526 19.9983 34.0376 176 164 148 4
138.5526 0.5871 38.6362 176 164 148 4
138.5526 5.1820 38.5221 176 164 148 4
138.5526 11.0984 38.4183 176 164 148 4
138.5526 15.0842 39.1265 176 164 148 4
138.5526 21.1668 38.7273 176 164 148 4
138.5526 1.0846 43.4550 176 164 148 4
138.5526 5.1573 43.9134 176 164 148 4
138.5526 10.1940 43.9119 176 164 148 4
138.5526 15.2326 43.9328 176 164 148 4
138.5526 20.5259 43.6104 176 164 148 4
120.8969 0.5871 28.7420 176 164 148 4
120.2995 5.9910 28.7420 176 164 148 4
120.3877 10.1056 28.7420 176 164 148 4
120.6579 16.0345 28.7420 176 164 148 4
120.5294 20.6372 28.7420 176 164 148 4
125.0229 0.5871 28.7420 176 164 148 4
125.5690 5.0651 28.7420 176 164 148 4
124.7261 10.2857 28.7420 176 164 148 4
125.8961 15.9097 28.7420 176 164 148 4
125.7643 20.1835 28.7420 176 164 148 4
130.6217 0.5871 28.7420 176 164 148 4
130.6282 5.9517 28.7420 176 164 148 4
129.8227 10.8465 28.7420 176 164 148 4
129.9332 15.1955 28.7420 176 164 148 4
130.0650 20.3349 28.7420 176 164 148 4
135.6478 0.5871 28.7420 176 164 148 4
134.7758 5.5176 28.7420 176 164 148 4
134.7421 10.7957 28.7420 176 164 148 4
135.6928 15.4135 28.7420 176 164 148 4
135.3652 20.4949 28.7420 176 164 148 4
120.7950 0.5871 43.9328 176 164 148 4
120.6632 5.7244 43.9328 176 164 148 4
120.2995 11.0935 43.9328 176 164 148 4
120.2995 15.2390 43.9328 176 164 148 4
120.7297 20.9120 43.9328 176 164 148 4
125.0433 0.5871 43.9328 176 164 148 4
124.7365 5.0020 43.9328 176 164 148 4
125.6921 10.7669 43.9328 176 164 148 4
125.7691 15.9768 43.9328 176 164 148 4
125.6034 20.0964 43.9328 176 164 148 4
130.8572 1.0229 43.9328 176 164 148 4
130.5607 5.7565 43.9328 176 164 148 4
130.6688 11.1099 43.9328 176 164 148 4
129.9197 16.0382 43.9328 176 164 148 4
130.8652 20.4223 43.9328 176 164 148 4
135.4027 0.5871 43.9328 176 164 148 4
134.8266 5.0444 43.9328 176 164 148 4
135.8837 11.0341 43.9328 176 164 148 4
134.8389 15.3251 43.9328 176 164 148 4
134.7945 20.8194 43.9328 176 164 148 4
125.9655 15.2975 270.0982 112 116 122 5
126.4376 15.5910 274.3004 112 116 122 5
125.9655 15.2975 280.2765 112 116 122 5
126.0547 15.3530 284.8948 112 116 122 5
125.9655 15.2975 289.6553 112 116 122 5
126.4306 15.5867 294.1869 112 116 122 5
131.4799 15.2975 269.7713 112 116 122 5
130.7626 15.8036 275.1787 112 116 122 5
131.0838 15.6039 279.6138 112 116 122 5
131.3436 15.4423 285.3560 112 116 122 5
130.5489 15.9364 289.1950 112 116 122 5
131.0864 15.6023 295.3607 112 116 122 5
125.9655 0.3439 269.7713 176 164 148 4
125.9655 5.0042 269.7713 176 164 148 4
125.9655 9.9991 269.9565 176 164 148 4
125.9655 0.3439 274.5225 176 164 148 4
125.9655 4.8927 274.5324 176 164 148 4
125.9655 9.7857 274.5822 176 164 148 4
125.9655 0.5919 279.5136 176 164 148 4
125.9655 4.9211 279.3728 176 164 148 4
125.9655 10.3629 280.2676 176 164 148 4
125.9655 0.3439 284.4519 176 164 148 4
125.9655 5.8424 284.7061 176 164 148 4
125.9655 10.9388 284.6019 176 164 148 4
125.9655 0.8376 289.6892 176 164 148 4
125.9655 5.2826 290.0330 176 164 148 4
125.9655 10.8614 289.2262 176 164 148 4
125.9655 0.4165 294.4299 176 164 148 4
125.9655 5.6955 295.0148 176 164 148 4
125.9655 10.5152 294.4643 176 164 148 4
131.5765 0.3439 269.7713 176 164 148 4
131.5765 4.7613 269.7891 176 164 148 4
131.5765 10.7299 269.7713 176 164 148 4
131.5765 0.6567 274.5713 176 164 148 4
131.5765 5.8964 275.0839 176 164 148 4
131.5765 9.8742 275.0336 176 164 148 4
131.5765 0.7117 279.4441 176 164 148 4
131.5765 4.8817 279.9226 176 164 148 4
131.5765 10.3721 279.9057 176 164 148 4
131.5765 0.3439 285.0602 176 164 148 4
131.5765 4.9380 284.8727 176 164 148 4
131.5765 10.1128 284.1937 176 164 148 4
131.5765 0.3439 289.3153 176 164 148 4
131.5765 5.8716 289.6785 176 164 148 4
131.5765 10.9428 289.2095 176 164 148 4
131.5765 0.9011 294.8778 176 164 148 4
131.5765 5.2608 295.2615 176 164 148 4
131.5765 10.0879 294.2714 176 164 148 4
125.9655 0.5724 269.7713 176 164 148 4
126.0034 4.9903 269.7713 176 164 148 4
125.9655 9.9804 269.7713 176 164 148 4
131.5113 0.3439 269.7713 176 164 148 4
131.3719 4.9919 269.7713 176 164 148 4
130.3856 9.7682 269.7713 176 164 148 4
125.9655 0.3439 297.9987 176 164 148 4
125.9655 5.7144 297.9987 176 164 148 4
126.2242 10.5838 297.9987 176 164 148 4
130.4036 0.3439 297.9987 176 164 148 4
130.6385 5.6771 297.9987 176 164 148 4
130.5262 10.7038 297.9987 176 164 148 4
109.7541 35.3331 205.3645 112 116 122 5
109.7541 35.3331 209.9352 112 116 122 5
114.8626 36.8189 205.3080 112 116 122 5
114.3602 36.6727 210.5621 112 116 122 5
119.2484 38.0945 205.5968 112 116 122 5
119.9149 38.2883 210.5439 112 116 122 5
125.0482 39.7813 205.5605 112 116 122 5
124.3714 39.5845 210.0606 112 116 122 5
129.4501 41.0616 205.2259 112 116 122 5
129.4949 41.0746 210.2195 112 116 122 5
134.7053 42.5900 205.5582 112 116 122 5
134.4061 42.5030 210.1509 112 116 122 5
134.6321 42.5688 214.7880 112 116 122 5
135.0722 42.6968 220.5197 112 116 122 5
135.1262 42.7125 225.0259 112 116 122 5
134.1831 42.4382 229.6849 112 116 122 5
139.2611 43.9151 205.1865 112 116 122 5
139.9494 44.1153 210.1954 112 116 122 5
139.2851 43.9221 215.4151 112 116 122 5
139.9494 44.1153 219.6269 112 116 122 5
139.4444 43.9684 225.2574 112 116 122 5
139.6604 44.0312 229.6490 112 116 122 5
109.7541 0.9178 205.1865 176 164 148 4
109.7541 5.4719 205.4456 176 164 148 4
109.7541 10.7670 205.1865 176 164 148 4
109.7541 15.4215 205.1865 176 164 148 4
109.7541 20.3802 205.1865 176 164 148 4
109.7541 25.7977 205.6497 176 164 148 4
109.7541 30.1602 205.1865 176 164 148 4
109.7541 0.4567 210.7745 176 164 148 4
109.7541 5.5718 209.7290 176 164 148 4
109.7541 10.7377 210.2089 176 164 148 4
109.7541 15.6668 210.2720 176 164 148 4
109.7541 20.2089 209.7164 176 164 148 4
109.7541 25.5961 210.1263 176 164 148 4
109.7541 30.2051 210.1580 176 164 148 4
110.1461 0.4567 205.1865 176 164 148 4
109.7541 5.2623 205.1865 176 164 148 4
109.9978 11.0379 205.1865 176 164 148 4
109.7541 15.2445 205.1865 176 164 148 4
109.7541 20.7467 205.1865 176 164 148 4
109.7541 24.8616 205.1865 176 164 148 4
110.0267 30.1919 205.1865 176 164 148 4
114.7246 0.4900 205.1865 176 164 148 4
114.9416 4.9240 205.1865 176 164 148 4
114.5461 10.3057 205.1865 176 164 148 4
115.3240 15.9261 205.1865 176 164 148 4
115.2253 20.7962 205.1865 176 164 148 4
115.2193 25.6969 205.1865 176 164 148 4
114.1586 30.7414 205.1865 176 164 148 4
119.7617 0.9845 205.1865 176 164 148 4
119.7052 4.9304 205.1865 176 164 148 4
119.7751 10.9280 205.1865 176 164 148 4
120.1710 15.0106 205.1865 176 164 148 4
120.1413 20.2745 205.1865 176 164 148 4
119.7929 25.1575 205.1865 176 164 148 4
119.2655 31.0080 205.1865 176 164 148 4
124.9162 0.4567 205.1865 176 164 148 4
124.8073 4.9313 205.1865 176 164 148 4
124.8570 9.9173 205.1865 176 164 148 4
124.5825 14.8821 205.1865 176 164 148 4
125.0328 20.7710 205.1865 176 164 148 4
124.9473 24.8894 205.1865 176 164 148 4
124.4706 29.9364 205.1865 176 164 148 4
129.5363 0.4567 205.1865 176 164 148 4
129.3715 5.4484 205.1865 176 164 148 4
129.7384 10.7273 205.1865 176 164 148 4
130.0429 16.0317 205.1865 176 164 148 4
130.0474 20.5906 205.1865 176 164 148 4
130.2173 25.1807 205.1865 176 164 148 4
129.9187 30.1075 205.1865 176 164 148 4
110.0087 0.9692 213.8965 176 164 148 4
109.8352 5.2090 213.8965 176 164 148 4
109.7676 10.9537 213.8965 176 164 148 4
109.7556 15.5627 213.8965 176 164 148 4
109.9078 20.1347 213.8965 176 164 148 4
109.7541 25.7309 213.8965 176 164 148 4
109.7541 29.9255 213.8965 176 164 148 4
115.2290 0.8728 213.8965 176 164 148 4
114.5665 5.4478 213.8965 176 164 148 4
114.8934 10.6868 213.8965 176 164 148 4
115.1119 15.7481 213.8965 176 164 148 4
114.5076 20.8385 213.8965 176 164 148 4
114.9296 25.1313 213.8965 176 164 148 4
114.8165 30.2506 213.8965 176 164 148 4
119.5894 0.4567 213.8965 176 164 148 4
120.1862 6.0007 213.8965 176 164 148 4
119.1647 11.0216 213.8965 176 164 148 4
119.5516 15.9215 213.8965 176 164 148 4
120.2232 20.2854 213.8965 176 164 148 4
119.2466 25.8852 213.8965 176 164 148 4
119.5327 30.5832 213.8965 176 164 148 4
124.4932 0.4567 213.8965 176 164 148 4
125.2178 4.8881 213.8965 176 164 148 4
124.7110 10.9496 213.8965 176 164 148 4
124.2913 15.2786 213.8965 176 164 148 4
124.8612 19.8842 213.8965 176 164 148 4
124.9375 25.6636 213.8965 176 164 148 4
124.9259 30.3833 213.8965 176 164 148 4
130.1571 0.8420 213.8965 176 164 148 4
129.4923 4.9230 213.8965 176 164 148 4
129.9939 10.7855 213.8965 176 164 148 4
129.2962 15.3824 213.8965 176 164 148 4
129.4774 20.3177 213.8965 176 164 148 4
129.6318 25.0636 213.8965 176 164 148 4
129.3148 30.6387 213.8965 176 164 148 4
139.9494 0.4567 205.1865 176 164 148 4
139.9494 5.3246 205.1865 176 164 148 4
139.9494 10.3519 205.1865 176 164 148 4
139.9494 15.9815 205.1865 176 164 148 4
139.9494 20.3697 205.2402 176 164 148 4
139.9494 24.8703 205.4768 176 164 148 4
139.9494 30.9468 205.1865 176 164 148 4
139.9494 0.6952 210.3213 176 164 148 4
139.9494 5.1848 210.0009 176 164 148 4
139.9494 10.6567 210.1364 176 164 148 4
139.9494 15.9346 209.6034 176 164 148 4
139.9494 21.0546 210.2046 176 164 148 4
139.9494 25.5936 209.6138 176 164 148 4
139.9494 31.0079 210.4005 176 164 148 4
131.6995 0.6133 205.1865 176 164 148 4
131.2393 5.3727 205.1865 176 164 148 4
131.2393 10.5798 205.1865 176 164 148 4
131.7652 15.2957 205.1865 176 164 148 4
131.7016 20.6114 205.1865 176 164 148 4
131.4198 24.8649 205.1865 176 164 148 4
131.5772 30.3580 205.1865 176 164 148 4
136.2589 0.7993 205.1865 176 164 148 4
135.9010 5.5616 205.1865 176 164 148 4
136.6364 10.6805 205.1865 176 164 148 4
136.0938 15.7659 205.1865 176 164 148 4
136.5304 20.9929 205.1865 176 164 148 4
135.7546 25.9019 205.1865 176 164 148 4
136.6602 30.0308 205.1865 176 164 148 4
131.2393 0.4567 214.1397 176 164 148 4
131.2393 5.9345 213.8965 176 164 148 4
131.2393 10.4318 213.8965 176 164 148 4
131.2393 15.9674 214.2847 176 164 148 4
131.2393 20.6997 214.2179 176 164 148 4
131.2393 25.6312 214.1848 176 164 148 4
131.2393 30.3525 213.8965 176 164 148 4
131.2393 0.7634 218.2996 176 164 148 4
131.2393 5.0240 218.7566 176 164 148 4
131.2393 10.5457 219.2841 176 164 148 4
131.2393 14.9882 219.0849 176 164 148 4
131.2393 20.8729 219.4321 176 164 148 4
131.2393 25.1938 218.5169 176 164 148 4
131.2393 29.9012 218.5595 176 164 148 4
131.2393 1.0391 223.3497 176 164 148 4
131.2393 5.3450 223.4593 176 164 148 4
131.2393 10.3628 224.4881 176 164 148 4
131.2393 15.4412 223.6302 176 164 148 4
131.2393 20.4103 223.5386 176 164 148 4
131.2393 25.6793 223.8021 176 164 148 4
131.2393 29.9935 224.2583 176 164 148 4
131.2393 0.4567 229.2837 176 164 148 4
131.2393 5.0169 229.4116 176 164 148 4
131.2393 10.6102 229.1766 176 164 148 4
131.2393 15.9339 228.5357 176 164 148 4
131.2393 20.9650 228.3867 176 164 148 4
131.2393 26.0028 229.4442 176 164 148 4
131.2393 31.0433 229.4574 176 164 148 4
139.9494 0.4567 214.3451 176 164 148 4
139.9494 5.4487 214.0292 176 164 148 4
139.9494 10.9508 213.8965 176 164 148 4
139.9494 15.2785 214.4964 176 164 148 4
139.9494 20.2830 213.8965 176 164 148 4
139.9494 25.3701 214.1942 176 164 148 4
139.9494 30.0687 213.8965 176 164 148 4
139.9494 0.7814 218.7070 176 164 148 4
139.9494 6.0248 218.6404 176 164 148 4
139.9494 10.5986 219.3131 176 164 148 4
139.9494 15.4956 218.9321 176 164 148 4
139.9494 19.9836 218.7506 176 164 148 4
139.9494 25.5901 218.8002 176 164 148 4
139.9494 30.5803 219.0922 176 164 148 4
139.9494 0.7916 224.4666 176 164 148 4
139.9494 5.0515 223.5609 176 164 148 4
139.9494 10.2113 224.0259 176 164 148 4
139.9494 14.9245 223.6196 176 164 148 4
139.9494 20.9686 223.6186 176 164 148 4
139.9494 25.3668 223.4580 176 164 148 4
139.9494 30.5216 224.4956 176 164 148 4
139.9494 0.6690 228.5499 176 164 148 4
139.9494 5.1476 228.5440 176 164 148 4
139.9494 10.1347 229.3322 176 164 148 4
139.9494 16.0380 228.4302 176 164 148 4
139.9494 20.8703 229.1097 176 164 148 4
139.9494 25.5640 229.2642 176 164 148 4
139.9494 30.5647 229.4389 176 164 148 4
131.2393 1.0188 230.8043 176 164 148 4
131.6077 5.5926 230.8043 176 164 148 4
131.2393 10.5562 230.8043 176 164 148 4
131.3224 15.1398 230.8043 176 164 148 4
131.5735 20.7597 230.8043 176 164 148 4
131.2393 25.1822 230.8043 176 164 148 4
131.5662 30.4171 230.8043 176 164 148 4
135.9503 0.4567 230.8043 176 164 148 4
136.0185 5.1432 230.8043 176 164 148 4
136.8207 10.8923 230.8043 176 164 148 4
136.5428 15.6725 230.8043 176 164 148 4
136.0041 20.6777 230.8043 176 164 148 4
136.7221 25.1965 230.8043 176 164 148 4
136.3023 30.3385 230.8043 176 164 148 4
178.9379 14.5543 40.1065 112 116 122 5
178.9440 14.6418 44.9251 112 116 122 5
178.8580 14.5543 50.3098 112 116 122 5
178.8660 14.5625 55.3576 112 116 122 5
183.4144 14.9193 40.6422 112 116 122 5
183.9536 17.5833 45.3570 112 116 122 5
183.9514 18.0355 50.6144 112 116 122 5
184.1408 17.3841 55.5606 112 116 122 5
188.4636 14.6739 40.2820 112 116 122 5
188.7855 17.5042 45.5904 112 116 122 5
188.6456 17.5443 49.6768 112 116 122 5
188.9667 17.4523 55.0691 112 116 122 5
178.8580 0.1895 40.2378 176 164 148 4
178.8580 4.6198 40.1065 176 164 148 4
178.8580 9.4555 40.1065 176 164 148 4
178.8580 -0.3059 44.7495 176 164 148 4
178.8580 4.7120 44.6521 176 164 148 4
178.8580 10.1580 45.5367 176 164 148 4
178.8580 -0.3059 50.4613 176 164 148 4
178.8580 4.2801 50.2081 176 164 148 4
178.8580 9.6872 49.7399 176 164 148 4
178.8580 -0.3059 54.8702 176 164 148 4
178.8580 4.4808 55.4356 176 164 148 4
178.8580 9.4238 55.2003 176 164 148 4
192.0249 -0.3059 40.1065 176 164 148 4
192.0249 4.2927 40.6157 176 164 148 4
192.0249 10.2910 40.1730 176 164 148 4
192.0249 -0.3059 44.7776 176 164 148 4
192.0249 5.2720 45.3540 176 164 148 4
192.0249 9.4020 45.3796 176 164 148 4
192.0249 -0.1903 50.0743 176 164 148 4
192.0249 4.5014 50.1690 176 164 148 4
192.0249 10.0787 50.6371 176 164 148 4
192.0249 -0.1905 55.2674 176 164 148 4
192.0249 4.2235 54.6799 176 164 148 4
192.0249 9.9221 55.4898 176 164 148 4
179.3097 0.2156 40.1065 176 164 148 4
178.9010 4.2173 40.1065 176 164 148 4
178.8580 9.5826 40.1065 176 164 148 4
183.4018 -0.3059 40.1065 176 164 148 4
184.3347 4.8809 40.1065 176 164 148 4
183.8659 9.6620 40.1065 176 164 148 4
188.5355 -0.3059 40.1065 176 164 148 4
189.4394 5.0024 40.1065 176 164 148 4
188.5466 9.5273 40.1065 176 164 148 4
178.8580 -0.3059 59.7731 176 164 148 4
178.8580 4.8722 59.7731 176 164 148 4
178.9400 9.4173 59.7731 176 164 148 4
183.9840 -0.3059 59.7731 176 164 148 4
184.2953 4.3630 59.7731 176 164 148 4
184.3496 9.7628 59.7731 176 164 148 4
189.2132 -0.0446 59.7731 176 164 148 4
188.6269 5.1217 59.7731 176 164 148 4
188.6708 9.4542 59.7731 176 164 148 4
