ply
format ascii 1.0
comment generated by citygen
element vertex 1322
property float x
property float y
property float z
property uchar red
property uchar green
property uchar blue
property int class
end_header
17.6594 3.5042 213.2125 107 132 85 1
17.9233 3.4453 219.2017 107 132 85 1
17.4534 3.4141 221.9316 107 132 85 1
17.9756 3.5126 231.1261 107 132 85 1
18.6376 3.7151 240.0995 107 132 85 1
18.4149 3.7326 242.8819 174 174 166 3
18.5383 3.7822 245.7881 47 50 54 2
17.8564 3.7397 249.1091 47 50 54 2
18.6492 3.8387 251.8866 47 50 54 2
17.5414 3.7271 255.5694 107 132 85 1
21.4453 4.0826 0.0000 174 174 166 3
21.3202 3.8782 6.6089 107 132 85 1
20.5538 3.6450 12.3586 107 132 85 1
21.6492 3.6452 14.5116 107 132 85 1
20.9866 3.2822 30.0181 107 132 85 1
21.1828 3.3027 35.4854 107 132 85 1
20.6203 3.2662 38.4300 107 132 85 1
20.3553 3.2906 42.0450 174 174 166 3
20.4597 3.3724 45.2640 47 50 54 2
21.1620 3.5154 47.5163 47 50 54 2
20.7735 3.5595 50.6131 47 50 54 2
21.4210 3.7314 53.6303 174 174 166 3
21.3009 3.8221 56.8595 107 132 85 1
20.3732 4.0853 68.5278 107 132 85 1
21.2157 4.2149 71.8513 107 132 85 1
20.4943 4.2160 74.4539 107 132 85 1
20.5255 4.2779 81.0672 107 132 85 1
21.3877 4.1014 96.6577 107 132 85 1
21.4216 4.0553 98.8638 107 132 85 1
21.0268 4.0113 102.1758 107 132 85 1
20.7805 3.9743 105.0797 107 132 85 1
21.0089 3.8355 117.4538 107 132 85 1
21.2427 3.8208 119.6933 174 174 166 3
21.0451 3.8534 122.6745 47 50 54 2
20.4307 3.9444 126.4196 47 50 54 2
21.0131 3.9551 129.5060 174 174 166 3
21.4188 3.9810 132.0666 107 132 85 1
21.3328 4.2152 140.4567 107 132 85 1
21.2202 4.4219 147.3249 107 132 85 1
21.2798 4.4956 150.3626 107 132 85 1
20.4611 4.6251 153.1634 107 132 85 1
21.0953 4.4101 180.3100 107 132 85 1
20.4068 4.3760 183.2887 107 132 85 1
21.5222 4.1791 186.1569 174 174 166 3
20.6425 4.1683 188.5031 47 50 54 2
21.4905 3.9937 191.6589 47 50 54 2
20.7870 3.9457 194.4536 47 50 54 2
21.5759 3.7908 198.1251 174 174 166 3
20.7236 3.7367 201.4698 107 132 85 1
20.4938 3.6188 207.2707 107 132 85 1
21.6340 3.5883 210.2933 107 132 85 1
20.5876 3.5546 215.4839 107 132 85 1
21.0797 3.6245 221.9992 107 132 85 1
20.6805 3.6822 227.4209 107 132 85 1
20.7634 3.7532 230.7753 107 132 85 1
21.4205 4.0557 243.2396 174 174 166 3
21.6348 4.1096 245.7413 47 50 54 2
20.3436 4.0027 249.0088 47 50 54 2
21.6587 4.1470 251.7560 47 50 54 2
20.9133 4.0649 255.4130 107 132 85 1
23.5825 4.1751 0.0000 174 174 166 3
24.0999 4.1318 2.5639 107 132 85 1
24.4193 3.7629 17.4370 107 132 85 1
23.5271 3.6135 21.6349 107 132 85 1
23.9361 3.6128 24.2614 107 132 85 1
23.8023 3.5796 33.5041 107 132 85 1
23.5251 3.5667 35.6216 107 132 85 1
23.8762 3.6518 38.8334 107 132 85 1
24.6231 3.7963 41.6294 174 174 166 3
24.1150 3.8008 44.5721 47 50 54 2
24.2767 3.8963 47.5165 47 50 54 2
23.7808 3.9462 51.5033 47 50 54 2
24.2036 4.0655 53.9705 174 174 166 3
23.8455 4.0925 56.4403 107 132 85 1
24.5874 4.2509 59.6054 107 132 85 1
23.3578 4.2708 66.1882 107 132 85 1
23.7191 4.3647 71.9776 107 132 85 1
23.6492 4.1083 92.6703 107 132 85 1
23.3724 4.0249 96.3122 107 132 85 1
23.4216 3.8227 104.4455 107 132 85 1
24.0059 3.7219 107.5873 107 132 85 1
24.4697 3.6311 111.3459 107 132 85 1
24.3938 3.6062 114.2130 107 132 85 1
23.5652 3.6499 117.0109 107 132 85 1
23.5892 3.6492 119.5223 174 174 166 3
23.9553 3.6514 123.6490 47 50 54 2
23.9877 3.6803 126.0720 47 50 54 2
23.6537 3.7474 128.6378 47 50 54 2
23.4837 3.8187 131.4645 174 174 166 3
23.5682 3.9082 135.3174 107 132 85 1
24.5287 4.1587 147.2150 107 132 85 1
24.4849 4.2259 150.0170 107 132 85 1
24.4561 4.3243 155.6594 107 132 85 1
23.4050 4.4526 158.7359 107 132 85 1
23.6256 4.1887 179.5571 107 132 85 1
23.9839 4.0680 182.6786 107 132 85 1
24.3273 3.9576 185.5289 174 174 166 3
24.0319 3.8949 188.7046 47 50 54 2
23.7526 3.8149 192.5165 47 50 54 2
23.3525 3.7733 195.2234 47 50 54 2
23.7466 3.6919 198.2318 174 174 166 3
24.1347 3.6362 201.1830 107 132 85 1
24.3396 3.6057 206.3858 107 132 85 1
23.7412 3.6097 209.4278 107 132 85 1
23.7791 3.6347 212.9310 107 132 85 1
23.4236 3.6684 216.5549 107 132 85 1
23.9011 3.7222 218.3824 107 132 85 1
24.3413 4.1433 233.3835 107 132 85 1
23.4201 4.2083 240.0758 107 132 85 1
24.2455 4.3456 243.2981 174 174 166 3
24.6461 4.4214 246.4598 47 50 54 2
23.4278 4.3188 249.4900 47 50 54 2
23.5212 4.3301 251.9457 47 50 54 2
24.2685 4.3826 255.3491 107 132 85 1
27.6447 4.3369 0.0771 174 174 166 3
26.8403 4.2287 3.6315 107 132 85 1
26.4648 4.0931 8.6870 107 132 85 1
27.4390 4.0263 15.1528 107 132 85 1
27.4147 3.9921 17.4126 107 132 85 1
27.5744 3.9589 27.4588 107 132 85 1
26.3483 3.9621 39.3144 107 132 85 1
26.4832 4.0449 42.3847 174 174 166 3
27.6550 4.2601 45.2320 47 50 54 2
26.6621 4.2137 48.3775 47 50 54 2
27.6416 4.4001 51.1691 47 50 54 2
27.2512 4.4105 53.6925 174 174 166 3
26.5857 4.4684 60.6153 107 132 85 1
27.0978 4.5494 63.6590 107 132 85 1
26.9974 4.5576 68.3408 107 132 85 1
27.5652 4.5695 71.8089 107 132 85 1
27.5884 4.4645 77.9555 107 132 85 1
27.0656 3.8767 96.1187 107 132 85 1
26.8558 3.7095 101.4229 107 132 85 1
27.6052 3.5737 104.7060 107 132 85 1
27.4950 3.3889 116.9744 107 132 85 1
27.1260 3.4151 120.4952 174 174 166 3
27.4898 3.4102 123.1053 47 50 54 2
27.2844 3.4494 125.3732 47 50 54 2
27.2653 3.5206 129.5759 174 174 166 3
27.5738 3.5615 132.4802 174 174 166 3
27.6154 3.6194 135.0836 107 132 85 1
27.0101 3.7369 138.1039 107 132 85 1
26.9544 4.0071 149.5351 107 132 85 1
26.7542 4.1148 156.0782 107 132 85 1
26.7425 4.1317 158.5222 107 132 85 1
26.5964 3.8992 179.4019 107 132 85 1
27.0462 3.7631 183.6168 107 132 85 1
27.1419 3.6956 186.5382 174 174 166 3
26.5817 3.6872 189.3132 47 50 54 2
27.2323 3.6049 191.6730 47 50 54 2
27.1060 3.5770 194.9239 47 50 54 2
26.6556 3.5796 197.4243 174 174 166 3
26.6825 3.5696 201.3354 107 132 85 1
26.7420 3.5826 204.3342 107 132 85 1
27.2866 3.6752 210.3155 107 132 85 1
26.8527 3.7210 212.8042 107 132 85 1
26.3497 3.7973 216.5398 107 132 85 1
27.0930 3.9076 218.9510 107 132 85 1
26.6561 3.9800 221.9640 107 132 85 1
27.5962 4.1441 224.7559 107 132 85 1
26.9630 4.2256 228.4639 107 132 85 1
26.8309 4.4078 234.5612 107 132 85 1
27.3530 4.6367 242.5402 174 174 166 3
26.5744 4.6083 246.5911 47 50 54 2
27.5600 4.7096 249.1875 47 50 54 2
26.7229 4.6310 251.3912 47 50 54 2
26.3454 4.5663 255.5635 107 132 85 1
30.4552 4.4404 0.2147 174 174 166 3
30.6153 4.3205 9.1553 107 132 85 1
29.3916 4.2003 12.5152 107 132 85 1
29.5920 4.1639 17.6898 107 132 85 1
29.6831 4.1645 24.4301 107 132 85 1
29.9240 4.2059 26.9383 107 132 85 1
29.9006 4.2437 30.5194 107 132 85 1
29.8780 4.3925 38.7735 107 132 85 1
29.7431 4.4433 41.7899 174 174 166 3
29.4093 4.4713 44.8263 47 50 54 2
29.9304 4.6068 47.9792 47 50 54 2
30.4927 4.7270 50.6436 47 50 54 2
30.2465 4.7846 56.6406 107 132 85 1
30.4177 4.8221 62.7810 107 132 85 1
30.4783 4.7581 69.2318 107 132 85 1
30.0108 4.6839 71.8159 107 132 85 1
30.2129 4.6120 74.9555 107 132 85 1
29.8361 4.5167 77.7552 107 132 85 1
30.0330 3.8865 93.1170 107 132 85 1
29.9977 3.7757 95.7244 107 132 85 1
30.0336 3.6375 99.1039 107 132 85 1
29.8336 3.5374 102.1124 107 132 85 1
29.5617 3.4682 104.7343 107 132 85 1
29.9401 3.3521 108.4691 107 132 85 1
30.2838 3.2954 110.3612 107 132 85 1
29.4716 3.2942 113.5580 107 132 85 1
30.2267 3.2284 116.6044 107 132 85 1
29.4195 3.2735 120.2307 174 174 166 3
30.3822 3.2332 122.8874 47 50 54 2
29.4394 3.3196 125.7233 47 50 54 2
29.6104 3.3520 128.5314 47 50 54 2
30.6128 3.3594 132.3140 174 174 166 3
29.7940 3.4690 134.9826 107 132 85 1
30.3399 3.5681 141.3365 107 132 85 1
29.7060 3.8233 155.4229 107 132 85 1
29.9841 3.7703 165.2878 107 132 85 1
29.6158 3.7862 167.5890 107 132 85 1
30.1001 3.6840 171.1656 107 132 85 1
29.4585 3.5950 180.5522 107 132 85 1
30.3332 3.4835 182.4866 107 132 85 1
29.6310 3.5039 185.6687 174 174 166 3
30.4727 3.4094 189.4358 47 50 54 2
29.4823 3.4621 192.2513 47 50 54 2
29.7838 3.4448 194.3946 47 50 54 2
30.5194 3.4422 198.0030 174 174 166 3
29.9841 3.5729 204.6593 107 132 85 1
30.0962 3.6188 206.4236 107 132 85 1
29.7195 3.7290 210.2730 107 132 85 1
29.5713 3.8379 213.5550 107 132 85 1
29.3796 3.8972 215.3687 107 132 85 1
30.0073 4.3416 225.2009 107 132 85 1
29.9198 4.5706 231.1472 107 132 85 1
29.3908 4.6384 234.5234 107 132 85 1
29.9013 4.7530 236.9272 107 132 85 1
30.3065 4.8588 239.8841 107 132 85 1
29.9701 4.8818 242.9737 174 174 166 3
29.9994 4.9101 245.3729 47 50 54 2
30.6456 4.9774 249.1044 47 50 54 2
30.0684 4.9140 252.3803 174 174 166 3
29.5159 4.8457 254.6159 174 174 166 3
32.8087 4.5280 0.0000 174 174 166 3
33.3705 4.5275 2.5810 174 174 166 3
32.4810 4.4128 12.1294 107 132 85 1
32.4638 4.4029 15.1245 107 132 85 1
32.5983 4.4328 21.1296 107 132 85 1
32.5744 4.6635 35.7000 107 132 85 1
33.0075 4.8521 41.6006 174 174 166 3
33.3913 4.9705 44.9632 47 50 54 2
32.4452 4.9142 48.1379 47 50 54 2
33.3107 5.0567 51.0694 47 50 54 2
32.5335 5.0007 54.0883 174 174 166 3
32.5327 4.9380 66.0288 107 132 85 1
32.6191 4.7979 71.6198 107 132 85 1
33.2899 4.5392 78.4804 107 132 85 1
33.3743 3.9357 90.1421 107 132 85 1
32.5243 3.8212 92.8343 107 132 85 1
32.5032 3.5343 99.0691 107 132 85 1
33.0993 3.2928 104.8823 107 132 85 1
32.4412 3.2266 108.3845 107 132 85 1
33.0738 3.0762 116.9450 107 132 85 1
32.4890 3.1017 119.6402 174 174 166 3
33.0566 3.0885 123.3388 47 50 54 2
33.4239 3.0898 125.6577 47 50 54 2
32.7073 3.1770 129.2519 47 50 54 2
33.5867 3.1610 131.5989 174 174 166 3
33.5103 3.2127 134.4618 107 132 85 1
33.2425 3.3455 141.3029 107 132 85 1
32.8414 3.4631 147.6580 107 132 85 1
33.4147 3.4328 150.3651 107 132 85 1
32.4510 3.5469 156.6261 107 132 85 1
32.3464 3.5548 158.4669 107 132 85 1
32.9781 3.4386 165.1617 107 132 85 1
33.0952 3.3128 174.3843 107 132 85 1
32.4277 3.3153 180.1275 107 132 85 1
32.7297 3.2627 183.4455 107 132 85 1
32.9376 3.2386 186.5516 174 174 166 3
33.6462 3.2014 189.2023 47 50 54 2
33.1241 3.2677 192.6531 47 50 54 2
33.2365 3.2938 194.6521 47 50 54 2
33.3722 3.3753 198.4625 174 174 166 3
32.9166 3.4536 200.9346 107 132 85 1
32.4003 3.6578 206.8489 107 132 85 1
32.6681 3.7911 209.9130 107 132 85 1
33.6568 4.2963 219.1360 107 132 85 1
33.3278 4.5505 224.4903 107 132 85 1
32.3677 4.7729 231.1511 107 132 85 1
33.5794 5.0493 236.4018 107 132 85 1
32.9332 5.1390 243.5860 47 50 54 2
33.1531 5.1718 245.3766 47 50 54 2
32.9081 5.1573 249.6519 47 50 54 2
32.7358 5.1284 252.0321 174 174 166 3
33.4979 5.1445 255.2644 107 132 85 1
36.3327 4.6510 0.0000 174 174 166 3
36.2457 4.6472 2.6299 174 174 166 3
35.5404 4.6409 14.4144 107 132 85 1
35.6348 4.8932 29.3873 107 132 85 1
35.9036 5.2114 41.5233 174 174 166 3
35.6580 5.2479 45.1198 47 50 54 2
35.9170 5.3224 48.4989 47 50 54 2
35.9756 5.3480 51.1958 47 50 54 2
35.7931 5.3318 54.4598 107 132 85 1
36.2331 5.3542 57.0916 107 132 85 1
35.5236 5.2544 60.1324 107 132 85 1
35.9114 5.2224 63.0235 107 132 85 1
36.2569 5.1427 66.3401 107 132 85 1
36.3359 5.0294 69.3617 107 132 85 1
35.8805 4.7314 75.3645 107 132 85 1
36.1177 4.5699 78.3846 107 132 85 1
36.6149 3.8416 90.4605 107 132 85 1
36.2857 3.7232 92.6576 107 132 85 1
36.1741 3.5233 96.4593 107 132 85 1
36.0558 3.3771 99.6098 107 132 85 1
36.5604 3.1373 105.3302 107 132 85 1
36.1719 3.0031 111.1632 107 132 85 1
36.4273 2.9204 117.1871 107 132 85 1
35.7543 2.9424 119.5099 174 174 166 3
35.8175 2.9445 122.5543 47 50 54 2
36.4529 2.9315 125.6574 47 50 54 2
36.6019 2.9508 128.7921 47 50 54 2
36.1230 3.0088 131.6097 174 174 166 3
36.1759 3.0439 134.7593 107 132 85 1
35.5367 3.1340 138.4621 107 132 85 1
35.6921 3.1789 143.7385 107 132 85 1
36.5352 3.1266 147.2813 107 132 85 1
36.1092 3.1645 155.4666 107 132 85 1
36.0225 3.1026 164.4407 107 132 85 1
35.5893 3.1085 168.4183 107 132 85 1
36.0616 3.0023 174.0834 107 132 85 1
35.6024 3.0215 182.6578 107 132 85 1
35.8325 3.0212 185.5388 174 174 166 3
35.8959 3.0535 188.4492 47 50 54 2
35.8316 3.1407 192.5746 47 50 54 2
36.2184 3.1820 194.5762 47 50 54 2
36.2796 3.2848 197.5810 174 174 166 3
36.1616 3.5725 204.0261 107 132 85 1
35.6699 3.8777 209.9161 107 132 85 1
35.9141 4.2652 216.3884 107 132 85 1
35.8060 4.7459 224.9552 107 132 85 1
36.5464 4.9493 227.9773 107 132 85 1
35.4644 5.0177 231.2736 107 132 85 1
35.4994 5.2103 236.8297 107 132 85 1
36.0749 5.3203 239.6751 107 132 85 1
35.7344 5.3494 243.2174 47 50 54 2
35.4994 5.3510 245.7263 47 50 54 2
35.8445 5.3776 248.5206 47 50 54 2
36.0005 5.3633 252.1965 174 174 166 3
39.3213 4.7542 0.0000 47 50 54 2
39.0908 4.7988 5.8783 107 132 85 1
38.7932 4.9645 17.6433 107 132 85 1
39.0136 5.1336 23.7111 107 132 85 1
38.7663 5.1787 26.3837 107 132 85 1
38.4115 5.2416 30.1775 107 132 85 1
39.1272 5.4764 35.7614 107 132 85 1
38.8141 5.5251 39.5433 107 132 85 1
38.8492 5.5764 42.0713 174 174 166 3
39.4916 5.6907 45.1814 47 50 54 2
39.2681 5.6844 47.9896 47 50 54 2
39.2992 5.6881 50.3587 47 50 54 2
39.3322 5.6682 53.5486 174 174 166 3
38.4321 5.4646 60.2855 107 132 85 1
38.3773 5.2510 66.2375 107 132 85 1
39.0006 5.1165 69.5609 107 132 85 1
39.4254 5.0221 71.4912 107 132 85 1
38.4444 4.7932 75.0254 107 132 85 1
39.3556 4.5887 78.3825 107 132 85 1
38.6411 3.4698 96.1114 107 132 85 1
39.2291 3.3089 98.9633 107 132 85 1
38.6020 3.1937 101.9432 107 132 85 1
38.9837 3.0892 104.3542 107 132 85 1
38.8632 2.9819 107.8666 107 132 85 1
39.2893 2.8877 111.2783 107 132 85 1
38.7470 2.8603 114.0328 107 132 85 1
38.7748 2.8251 117.3752 107 132 85 1
39.0999 2.7967 123.0853 47 50 54 2
38.6106 2.8253 125.4900 47 50 54 2
38.8008 2.8377 129.5022 47 50 54 2
39.1878 2.8340 132.3203 174 174 166 3
38.3680 2.9072 135.4258 107 132 85 1
39.5777 2.8393 138.1162 107 132 85 1
39.5321 2.8514 140.9485 107 132 85 1
38.5479 2.9376 143.4121 107 132 85 1
39.6433 2.8409 146.6425 107 132 85 1
39.2685 2.8646 149.9184 107 132 85 1
38.7226 2.8777 156.3933 107 132 85 1
39.1994 2.7991 159.1687 107 132 85 1
39.5895 2.6942 165.0996 107 132 85 1
38.8890 2.7514 167.3412 107 132 85 1
39.2131 2.6893 171.0750 107 132 85 1
39.6220 2.6437 176.6500 107 132 85 1
39.5647 2.7735 185.7663 174 174 166 3
39.5847 2.8722 189.2574 47 50 54 2
39.4319 3.0020 192.6084 47 50 54 2
38.5523 3.1187 194.7780 47 50 54 2
39.3245 3.2260 197.4187 174 174 166 3
38.6941 3.7413 206.3458 107 132 85 1
38.7245 4.2247 213.6597 107 132 85 1
39.5120 4.6254 219.0774 107 132 85 1
39.4112 5.1641 228.4708 107 132 85 1
38.8403 5.2655 231.5538 107 132 85 1
38.5904 5.4285 236.8201 107 132 85 1
39.2086 5.5418 240.0792 174 174 166 3
38.7984 5.5555 242.9032 174 174 166 3
39.0614 5.5907 245.6524 47 50 54 2
39.1104 5.5894 249.3666 47 50 54 2
38.4979 5.5233 252.5988 174 174 166 3
42.0980 4.8524 0.0934 47 50 54 2
42.5299 4.9153 2.5975 174 174 166 3
41.3800 4.9787 8.7540 107 132 85 1
42.3433 5.1341 12.3432 107 132 85 1
41.5184 5.8726 41.3896 174 174 166 3
41.7009 5.9293 45.2541 47 50 54 2
41.3548 5.8984 47.4239 47 50 54 2
42.3359 5.9702 50.7170 47 50 54 2
42.1662 5.8984 54.0296 174 174 166 3
41.7888 5.7801 57.4137 107 132 85 1
42.1070 5.6854 60.5616 107 132 85 1
42.2926 5.5882 62.9292 107 132 85 1
42.1098 5.4240 65.9285 107 132 85 1
41.4998 5.1880 69.6217 107 132 85 1
42.0198 5.0147 72.4842 107 132 85 1
41.9405 4.8500 74.8552 107 132 85 1
42.4120 3.3585 96.5656 107 132 85 1
41.4225 3.2805 98.4367 107 132 85 1
42.4048 3.0771 102.3876 107 132 85 1
41.8302 2.8775 108.5909 107 132 85 1
41.9890 2.8081 111.2968 107 132 85 1
42.5295 2.7063 116.5784 107 132 85 1
41.5797 2.7055 120.1710 174 174 166 3
42.5562 2.6552 123.0264 174 174 166 3
42.3356 2.6547 126.4056 47 50 54 2
41.8060 2.6785 128.9488 47 50 54 2
42.3083 2.6507 132.3601 174 174 166 3
42.1277 2.6447 141.1340 107 132 85 1
42.2246 2.6210 144.0465 107 132 85 1
42.0036 2.5937 149.9054 107 132 85 1
41.8889 2.5695 153.3155 107 132 85 1
41.6562 2.5298 158.9160 107 132 85 1
42.0510 2.4259 164.7051 107 132 85 1
41.5580 2.4460 170.9067 107 132 85 1
42.6342 2.3498 174.1513 107 132 85 1
41.7597 2.4517 176.7838 107 132 85 1
42.6281 2.4364 180.2483 107 132 85 1
41.8561 2.5677 183.4355 107 132 85 1
42.3623 2.6040 185.5900 174 174 166 3
42.0513 2.7528 189.0413 47 50 54 2
42.4522 2.8621 191.6825 47 50 54 2
42.3139 3.0212 194.5523 47 50 54 2
41.9822 3.2455 198.1928 174 174 166 3
42.3375 3.6742 204.3602 107 132 85 1
41.7205 4.0914 210.1572 107 132 85 1
42.1105 4.3219 213.0284 107 132 85 1
41.4717 4.7244 219.0131 107 132 85 1
42.4411 5.4380 230.4828 107 132 85 1
42.4502 5.5944 234.5442 107 132 85 1
42.3347 5.7196 239.7405 174 174 166 3
41.7428 5.7340 243.2293 47 50 54 2
42.1961 5.7743 246.2862 47 50 54 2
42.5762 5.7922 248.5799 47 50 54 2
41.3523 5.6958 252.5234 174 174 166 3
45.4321 4.9696 0.0000 47 50 54 2
44.8897 5.0290 2.9203 174 174 166 3
44.5726 5.1042 6.0837 107 132 85 1
44.4102 5.1846 9.0354 107 132 85 1
44.7908 5.4112 14.7724 107 132 85 1
44.6273 6.1874 39.5899 107 132 85 1
44.4906 6.1994 42.0457 174 174 166 3
45.1521 6.2709 45.3426 47 50 54 2
44.9379 6.2330 47.8625 47 50 54 2
45.3107 6.2244 50.3794 47 50 54 2
45.4799 6.1311 54.2848 174 174 166 3
45.0739 5.9862 57.4308 107 132 85 1
44.9606 5.8908 59.4096 107 132 85 1
44.4627 5.0837 72.0657 107 132 85 1
44.9538 4.9027 74.5393 107 132 85 1
44.5765 4.6254 78.0806 107 132 85 1
44.9891 3.1662 99.4290 107 132 85 1
45.2614 2.9350 104.6802 107 132 85 1
44.4120 2.7540 111.1714 107 132 85 1
45.0133 2.6852 113.8166 107 132 85 1
44.6434 2.6095 119.5572 107 132 85 1
45.2394 2.5614 122.3625 174 174 166 3
45.4633 2.5178 126.2780 47 50 54 2
44.4701 2.5444 129.0150 47 50 54 2
44.4083 2.5288 132.3000 174 174 166 3
44.9003 2.4784 135.1982 107 132 85 1
45.3618 2.4189 138.1267 107 132 85 1
45.2427 2.3903 141.4390 107 132 85 1
45.4449 2.3483 143.3878 107 132 85 1
45.1191 2.3180 147.6155 107 132 85 1
44.7816 2.3072 150.5990 107 132 85 1
45.5532 2.4799 186.3490 174 174 166 3
44.7483 2.6347 188.7644 47 50 54 2
45.3289 2.8316 192.3995 47 50 54 2
44.8536 2.9873 194.6474 47 50 54 2
45.5338 3.2384 198.1811 174 174 166 3
44.3961 3.4038 200.4149 107 132 85 1
45.4885 3.7503 204.5592 107 132 85 1
44.9551 3.9046 206.5700 107 132 85 1
44.9252 4.1434 209.4723 107 132 85 1
45.6576 4.4815 213.2788 107 132 85 1
44.9868 4.7154 216.5978 107 132 85 1
45.6051 4.9198 218.9864 107 132 85 1
44.8983 5.1121 222.2433 107 132 85 1
45.1355 5.2919 224.9594 107 132 85 1
44.5464 5.4485 228.3635 107 132 85 1
44.8145 5.6073 231.5850 107 132 85 1
44.5418 5.8458 240.6011 174 174 166 3
44.3594 5.8634 242.6620 47 50 54 2
45.0865 5.9168 245.4624 47 50 54 2
44.9108 5.9103 248.5519 47 50 54 2
44.5962 5.8800 251.4662 174 174 166 3
47.9867 5.0800 0.4473 47 50 54 2
48.6151 5.2172 3.2511 174 174 166 3
47.6724 5.3771 8.3843 107 132 85 1
48.1198 5.5720 12.1025 107 132 85 1
48.5338 6.5213 35.4201 107 132 85 1
48.4882 6.5636 38.4927 107 132 85 1
47.7179 6.5122 41.8707 174 174 166 3
47.7239 6.5002 45.1051 47 50 54 2
48.4304 6.5040 48.3616 47 50 54 2
47.8853 6.4149 50.3655 47 50 54 2
48.2395 6.3151 53.9051 174 174 166 3
48.0489 6.1461 57.3414 107 132 85 1
47.4761 5.5423 66.6102 107 132 85 1
47.9283 5.3707 69.0056 107 132 85 1
47.5563 5.1034 72.3128 107 132 85 1
48.5058 4.8699 75.2327 107 132 85 1
48.2165 4.3402 81.6051 107 132 85 1
48.3516 3.9647 86.3594 107 132 85 1
47.5036 3.6596 90.6465 107 132 85 1
48.0595 3.1726 98.6708 107 132 85 1
47.3998 3.0159 102.0599 107 132 85 1
47.6868 2.5256 119.3981 107 132 85 1
48.0179 2.4542 123.3141 174 174 166 3
48.6016 2.3921 125.9181 47 50 54 2
47.3830 2.3985 129.2252 47 50 54 2
47.9877 2.3276 131.9906 174 174 166 3
47.6225 2.2998 135.2589 107 132 85 1
48.3430 2.0905 143.8138 107 132 85 1
48.4023 2.0301 146.5077 107 132 85 1
48.2669 1.9645 150.3958 107 132 85 1
48.1932 1.8882 174.5694 107 132 85 1
47.8999 1.9613 176.5474 107 132 85 1
47.7409 2.1020 180.3603 107 132 85 1
47.8033 2.2216 183.1451 107 132 85 1
47.9082 2.4056 186.6448 174 174 166 3
48.4093 2.5616 189.3241 47 50 54 2
48.1690 2.7361 191.7327 47 50 54 2
47.9167 3.0381 195.6431 47 50 54 2
47.7441 3.2816 198.6118 174 174 166 3
48.6228 3.4492 200.4576 107 132 85 1
48.4461 3.7431 203.7806 107 132 85 1
47.9757 4.0540 207.3790 107 132 85 1
47.7026 4.8009 216.2847 107 132 85 1
47.4153 5.1844 221.6693 107 132 85 1
47.7032 5.3907 224.7373 107 132 85 1
47.3814 5.5769 228.3926 107 132 85 1
48.1992 5.9964 240.4335 174 174 166 3
48.3044 6.0356 243.1802 47 50 54 2
48.6534 6.0694 246.2249 47 50 54 2
47.5023 6.0268 248.6780 47 50 54 2
47.6192 6.0209 251.9557 174 174 166 3
51.4976 5.1974 0.0000 47 50 54 2
51.4250 5.3582 3.2936 174 174 166 3
51.0219 5.6070 8.5447 107 132 85 1
51.1245 6.7725 35.7290 107 132 85 1
51.5399 6.8334 41.8905 174 174 166 3
51.0109 6.7480 45.4633 47 50 54 2
51.1423 6.6897 48.2225 47 50 54 2
51.1308 6.5734 51.4902 174 174 166 3
50.9579 6.4734 53.5449 174 174 166 3
50.6872 6.2804 56.9748 107 132 85 1
51.0727 5.8963 62.9413 107 132 85 1
51.1566 5.3816 69.4157 107 132 85 1
50.3512 4.8600 75.4463 107 132 85 1
50.9181 4.1290 84.1766 107 132 85 1
50.6100 3.8921 87.2428 107 132 85 1
51.2168 3.4612 93.4785 107 132 85 1
50.5006 2.9811 102.4620 107 132 85 1
50.9804 2.8652 105.2175 107 132 85 1
51.5379 2.7384 108.6264 107 132 85 1
50.6325 2.6556 111.4238 107 132 85 1
51.3602 2.5801 113.7961 107 132 85 1
50.5069 2.5038 117.2881 107 132 85 1
51.1315 2.4341 119.6938 107 132 85 1
51.5956 2.3385 123.2063 174 174 166 3
50.6194 2.3061 126.1952 47 50 54 2
51.0265 2.2312 128.7955 47 50 54 2
51.5859 2.1310 131.7846 47 50 54 2
51.4763 2.0388 135.6492 107 132 85 1
50.8469 2.0330 137.5710 107 132 85 1
50.9637 1.9234 141.5468 107 132 85 1
51.0142 1.8417 144.5603 107 132 85 1
50.6920 1.7533 149.3707 107 132 85 1
51.3958 1.5745 171.2966 107 132 85 1
51.3440 1.6547 174.1139 107 132 85 1
51.2811 2.0488 182.6750 107 132 85 1
50.6214 2.3043 186.3552 174 174 166 3
51.0746 2.5155 189.3937 47 50 54 2
51.1801 2.7715 192.5699 47 50 54 2
50.9179 2.9309 194.4191 47 50 54 2
51.1684 3.2329 197.7730 174 174 166 3
51.4428 3.8005 203.7439 107 132 85 1
50.8548 4.6837 213.5497 107 132 85 1
50.7065 5.5445 225.5556 107 132 85 1
51.6318 5.6975 227.9286 107 132 85 1
51.4163 6.0262 236.9356 107 132 85 1
51.1099 6.0771 239.6443 174 174 166 3
51.6570 6.1451 243.0995 47 50 54 2
50.5285 6.1354 245.9956 47 50 54 2
51.2806 6.1718 248.3746 47 50 54 2
51.3287 6.1776 252.2784 174 174 166 3
54.1633 5.3025 0.0000 47 50 54 2
54.3906 5.4613 2.5264 174 174 166 3
54.2513 5.8087 8.3409 107 132 85 1
54.2731 6.2399 15.4009 107 132 85 1
53.9753 7.0106 35.5216 107 132 85 1
54.6556 7.0757 38.8113 107 132 85 1
54.4958 7.0361 42.1374 174 174 166 3
54.6259 6.9833 45.0367 47 50 54 2
53.3909 6.8134 48.3470 47 50 54 2
54.1785 6.7244 51.3088 174 174 166 3
54.1536 6.5967 53.7158 174 174 166 3
53.7259 6.3682 57.2152 107 132 85 1
54.0521 5.6563 66.5542 107 132 85 1
53.6771 5.1781 71.9995 107 132 85 1
54.3950 4.9443 74.6735 107 132 85 1
54.0396 4.4279 80.6000 107 132 85 1
54.6349 3.7399 89.4850 107 132 85 1
54.2746 3.1912 98.3475 107 132 85 1
54.3149 3.0005 102.1860 107 132 85 1
54.1230 2.6573 110.6857 107 132 85 1
53.5717 2.2922 122.6705 174 174 166 3
54.5319 2.1431 126.4828 47 50 54 2
53.7965 2.0932 129.0903 47 50 54 2
54.2346 1.9771 132.0556 47 50 54 2
54.0717 1.9053 134.5487 174 174 166 3
54.2792 1.5973 143.5051 107 132 85 1
54.5876 1.4723 146.7259 107 132 85 1
53.7348 1.4434 150.5678 107 132 85 1
53.9901 1.3949 171.1924 107 132 85 1
54.6294 1.4814 174.5793 107 132 85 1
53.6842 1.7922 179.8584 107 132 85 1
54.3512 1.9677 182.9209 107 132 85 1
53.3864 2.1829 185.5784 174 174 166 3
54.0510 2.4165 188.6366 47 50 54 2
54.4560 2.7330 192.2265 47 50 54 2
53.8542 2.9906 194.9882 47 50 54 2
54.5126 3.2404 197.5027 174 174 166 3
53.8118 3.6240 201.4744 107 132 85 1
54.1165 3.8296 203.4946 107 132 85 1
54.0029 4.6760 212.4698 107 132 85 1
53.5645 4.9969 216.4140 107 132 85 1
54.3327 5.3830 221.4262 107 132 85 1
53.5722 5.5981 225.1689 107 132 85 1
54.3178 5.8839 230.7017 107 132 85 1
53.4111 6.0027 234.4415 107 132 85 1
54.0963 6.0953 237.2259 107 132 85 1
54.2029 6.1711 240.6217 174 174 166 3
54.2590 6.2131 243.1473 47 50 54 2
53.9817 6.2451 246.5720 47 50 54 2
54.2448 6.2753 249.6048 47 50 54 2
54.3035 6.2883 251.6951 174 174 166 3
54.6165 6.3134 255.0563 107 132 85 1
57.3664 5.4321 0.0000 47 50 54 2
56.7847 5.5873 2.6784 174 174 166 3
57.2395 6.0914 9.6510 107 132 85 1
57.3810 6.2709 12.1561 107 132 85 1
57.3893 6.4444 14.7938 107 132 85 1
56.8555 7.2227 36.1717 107 132 85 1
57.1106 7.1845 42.1271 174 174 166 3
56.7160 7.0788 45.3358 47 50 54 2
57.1140 7.0104 47.5865 47 50 54 2
56.4688 6.8026 51.4056 174 174 166 3
57.3732 6.6298 54.6556 107 132 85 1
57.1172 6.4980 56.4989 107 132 85 1
56.3914 5.4647 68.9628 107 132 85 1
57.3550 5.1412 72.6200 107 132 85 1
57.6044 4.8998 75.3368 107 132 85 1
57.2409 4.4209 80.8775 107 132 85 1
56.8455 3.3179 96.4857 107 132 85 1
56.6225 3.0469 101.5875 107 132 85 1
56.6336 2.8916 104.9298 107 132 85 1
57.6546 2.5051 114.3319 107 132 85 1
57.4172 2.2810 120.1365 107 132 85 1
56.8588 2.1932 122.7877 174 174 166 3
56.8497 2.0576 126.3498 47 50 54 2
56.9412 1.9761 128.3472 47 50 54 2
57.1166 1.8176 132.1081 47 50 54 2
57.1016 1.7166 134.6336 174 174 166 3
56.4911 1.5086 141.0536 107 132 85 1
56.7883 1.1760 150.6401 107 132 85 1
56.7869 1.3524 173.9895 107 132 85 1
57.5805 1.4525 176.4511 107 132 85 1
56.5749 2.1354 185.6208 174 174 166 3
56.5088 2.4619 189.3160 47 50 54 2
56.5688 2.6926 191.7606 47 50 54 2
56.6876 3.0421 195.2900 47 50 54 2
57.4272 3.3938 198.6434 107 132 85 1
56.7024 3.6897 201.6357 107 132 85 1
56.8225 3.8660 203.3502 107 132 85 1
56.9962 4.5269 210.1097 107 132 85 1
56.4392 5.0175 215.9024 107 132 85 1
57.4543 5.2649 218.9465 107 132 85 1
57.5076 5.9619 231.5849 107 132 85 1
56.5346 6.0259 233.6110 107 132 85 1
56.5269 6.2135 240.6104 174 174 166 3
57.0338 6.2739 243.4098 47 50 54 2
57.4585 6.3310 246.5760 47 50 54 2
57.1965 6.3528 248.7504 47 50 54 2
56.3662 6.3619 252.1375 174 174 166 3
56.6737 6.3985 255.3521 107 132 85 1
59.6910 5.5700 0.5701 47 50 54 2
60.2484 5.7921 3.1559 174 174 166 3
59.9452 6.1723 8.3815 107 132 85 1
59.7278 6.3892 11.5460 107 132 85 1
60.5102 6.7050 15.3755 107 132 85 1
60.1626 7.4124 35.9526 107 132 85 1
60.6313 7.3951 39.5647 107 132 85 1
60.4751 7.3172 42.5080 174 174 166 3
59.5425 7.1894 45.2903 47 50 54 2
59.8592 7.0945 47.6549 47 50 54 2
60.2533 6.9152 51.0750 47 50 54 2
60.5426 6.7479 53.7128 174 174 166 3
60.3202 6.3198 59.3438 107 132 85 1
60.6204 5.4952 68.8362 107 132 85 1
59.8370 5.1980 72.1118 107 132 85 1
59.4764 4.9118 75.3155 107 132 85 1
60.4840 4.4044 81.4336 107 132 85 1
60.3994 4.1757 84.3527 107 132 85 1
59.8817 3.5318 93.6189 107 132 85 1
59.6226 3.4194 95.4184 107 132 85 1
60.1540 3.2334 98.8797 107 132 85 1
59.8347 3.0540 102.2229 107 132 85 1
60.1546 2.7653 108.2928 107 132 85 1
59.8067 2.2609 119.4807 107 132 85 1
59.5387 2.0941 123.3132 174 174 166 3
59.5509 1.9843 125.7114 47 50 54 2
60.2533 1.8038 128.9434 47 50 54 2
59.3731 1.6899 132.2635 47 50 54 2
60.3753 1.5096 134.9133 174 174 166 3
60.4316 1.3322 138.6445 107 132 85 1
59.4654 0.9754 150.1436 107 132 85 1
60.0900 1.2496 174.3208 107 132 85 1
60.3457 1.6572 180.3247 107 132 85 1
59.6289 1.8355 182.4252 107 132 85 1
60.2570 2.2007 186.5545 174 174 166 3
60.0952 2.4835 189.4748 47 50 54 2
60.2274 2.7413 192.0149 47 50 54 2
59.6904 3.0926 195.4562 174 174 166 3
60.4080 3.3500 197.8154 174 174 166 3
60.4417 4.0478 204.5592 107 132 85 1
60.6121 4.2407 206.4875 107 132 85 1
60.1845 4.5771 210.1171 107 132 85 1
60.5469 5.0252 215.3421 107 132 85 1
59.9090 5.3215 219.4061 107 132 85 1
60.1793 5.4614 221.4954 107 132 85 1
60.0532 5.6898 225.4064 107 132 85 1
60.5875 5.8206 227.9864 107 132 85 1
60.2629 5.9383 230.6497 107 132 85 1
59.8124 6.0774 234.3933 107 132 85 1
59.7834 6.1649 237.2047 107 132 85 1
60.0046 6.2293 239.5228 174 174 166 3
59.9241 6.3079 242.9084 47 50 54 2
59.8070 6.3564 245.3872 47 50 54 2
59.5679 6.4195 249.2665 174 174 166 3
60.1761 6.4707 251.4437 174 174 166 3
59.7338 6.5113 255.0005 107 132 85 1
62.7650 5.6532 0.0000 47 50 54 2
63.0550 5.8905 2.7050 174 174 166 3
63.1254 6.1778 6.1430 107 132 85 1
63.4208 6.3964 8.6600 107 132 85 1
63.0036 6.6115 11.7725 107 132 85 1
62.8683 7.2192 21.5850 107 132 85 1
63.5672 7.3469 23.5302 107 132 85 1
62.5133 7.4266 27.4685 107 132 85 1
62.4711 7.5151 32.6896 107 132 85 1
62.7808 7.5222 36.3293 107 132 85 1
62.7217 7.3924 42.1992 174 174 166 3
63.6595 7.3031 44.8904 47 50 54 2
62.8210 7.1085 48.4543 47 50 54 2
63.1057 6.9232 51.4987 174 174 166 3
62.6830 6.7835 53.4870 174 174 166 3
63.4526 6.4754 57.5663 107 132 85 1
63.4423 6.0391 62.7577 107 132 85 1
62.6613 4.6559 78.6286 107 132 85 1
62.3829 4.4492 81.1590 107 132 85 1
63.3525 3.9962 87.5063 107 132 85 1
62.5612 3.7977 90.2218 107 132 85 1
63.2365 3.1518 101.3938 107 132 85 1
62.7849 2.7869 108.2419 107 132 85 1
62.3456 2.6604 110.6917 107 132 85 1
62.5154 2.5216 113.4467 107 132 85 1
62.8302 2.3609 116.5301 107 132 85 1
63.3351 2.0046 122.9683 174 174 166 3
62.7617 1.8252 126.5577 47 50 54 2
62.3468 1.6789 129.5731 47 50 54 2
62.8229 1.5239 132.0361 47 50 54 2
63.0577 1.3689 134.7024 174 174 166 3
62.8694 0.8135 147.4377 107 132 85 1
63.2954 0.9751 170.9366 107 132 85 1
62.5109 1.1383 173.4703 107 132 85 1
63.4757 2.2243 186.6487 174 174 166 3
62.7381 2.5121 189.5543 47 50 54 2
63.1487 2.8045 192.3119 47 50 54 2
63.5579 3.1283 195.3109 174 174 166 3
62.4033 3.3329 197.3873 174 174 166 3
62.8910 3.7366 201.1743 107 132 85 1
63.1729 4.0142 203.8704 107 132 85 1
62.6679 4.3521 207.4010 107 132 85 1
62.6272 4.8686 213.2450 107 132 85 1
63.6541 5.5115 222.3659 107 132 85 1
63.4350 5.8065 227.8817 107 132 85 1
62.3713 5.9497 230.9885 107 132 85 1
63.1818 6.2468 239.5908 174 174 166 3
63.2060 6.3574 243.5463 47 50 54 2
63.2857 6.4072 245.4321 47 50 54 2
63.4179 6.5020 249.1648 174 174 166 3
63.2575 6.5755 252.4336 107 132 85 1
63.4148 6.6315 254.6683 107 132 85 1
66.3815 5.7973 0.0000 47 50 54 2
65.7554 6.0112 2.6853 47 50 54 2
65.3971 6.3251 6.5157 107 132 85 1
65.7732 6.5481 8.9858 107 132 85 1
66.5446 6.7864 11.5198 107 132 85 1
66.4462 7.0175 14.7961 107 132 85 1
65.4356 7.3221 20.8443 107 132 85 1
66.6587 7.5226 24.3551 107 132 85 1
65.4286 7.6041 29.6953 107 132 85 1
65.6785 7.4591 41.7921 174 174 166 3
66.1450 7.3095 45.2293 47 50 54 2
65.8114 7.1534 48.0336 47 50 54 2
65.9551 6.9708 50.8938 47 50 54 2
66.5710 6.7887 53.4264 174 174 166 3
65.8017 6.4967 57.2466 107 132 85 1
65.9435 6.2813 59.8566 107 132 85 1
66.4012 6.0464 62.6034 107 132 85 1
66.0740 5.2570 71.7814 107 132 85 1
65.6708 4.6990 78.5528 107 132 85 1
65.4925 4.2790 84.0955 107 132 85 1
66.3622 3.8813 90.2456 107 132 85 1
66.3299 3.7351 92.5486 107 132 85 1
65.5141 3.5057 96.0038 107 132 85 1
65.6512 2.6771 110.6028 107 132 85 1
66.5116 2.3281 116.4564 107 132 85 1
65.3758 2.1486 119.6748 107 132 85 1
65.6718 1.9135 123.4330 174 174 166 3
65.7075 1.7939 125.3544 174 174 166 3
66.5861 1.5043 129.4799 47 50 54 2
65.5888 1.3619 132.5328 47 50 54 2
65.9538 1.2087 134.8580 174 174 166 3
65.9419 1.0263 138.1762 107 132 85 1
66.4362 0.6207 146.8246 107 132 85 1
66.0024 0.5056 159.6224 107 132 85 1
66.3500 0.5306 161.6300 107 132 85 1
66.5040 0.6137 164.6067 107 132 85 1
66.3677 0.7310 167.3776 107 132 85 1
66.6452 1.1254 174.0036 107 132 85 1
66.4268 1.8606 182.6612 107 132 85 1
65.5105 2.1904 186.1119 174 174 166 3
65.8429 2.5469 189.5279 47 50 54 2
65.6564 2.8288 192.2209 47 50 54 2
65.3623 3.0753 194.5769 47 50 54 2
65.5826 3.4321 197.9207 174 174 166 3
66.2961 3.8061 201.4784 107 132 85 1
66.4089 4.0810 204.2627 107 132 85 1
66.2591 4.5759 209.6893 107 132 85 1
65.4703 4.8780 213.3373 107 132 85 1
65.5685 5.0865 216.0991 107 132 85 1
65.6867 5.4687 221.9297 107 132 85 1
66.5229 5.9203 231.0860 107 132 85 1
66.0124 6.2613 239.9904 174 174 166 3
66.2981 6.3585 242.9177 47 50 54 2
65.4692 6.4591 246.3651 47 50 54 2
66.5729 6.5364 248.4107 47 50 54 2
65.3748 6.6009 251.3426 174 174 166 3
69.2186 5.9362 0.3407 47 50 54 2
68.4556 6.1787 3.2695 174 174 166 3
69.5458 6.5241 6.6367 107 132 85 1
69.0050 6.9018 11.5459 107 132 85 1
69.4482 7.1572 14.9024 107 132 85 1
68.6663 7.4697 21.1088 107 132 85 1
68.7319 7.5750 23.7936 107 132 85 1
68.8867 7.6489 36.3117 107 132 85 1
68.8220 7.5659 39.3246 107 132 85 1
69.0035 7.4556 42.1540 174 174 166 3
68.4331 7.3256 44.8872 47 50 54 2
68.9740 7.1554 47.7819 47 50 54 2
68.3714 6.9884 50.4369 47 50 54 2
69.3628 6.7612 53.4609 174 174 166 3
68.9127 6.4964 56.9603 107 132 85 1
68.7872 6.2396 60.1395 107 132 85 1
69.3066 6.0287 62.6390 107 132 85 1
68.9250 5.4940 69.0838 107 132 85 1
68.9958 5.0176 75.0244 107 132 85 1
68.8465 4.3256 84.4582 107 132 85 1
69.2879 3.5669 96.5308 107 132 85 1
69.5949 3.0737 104.6606 107 132 85 1
68.6773 2.8672 107.7770 107 132 85 1
69.6475 2.2304 117.4247 107 132 85 1
69.6573 2.0608 119.8496 107 132 85 1
69.5071 1.8039 123.5450 174 174 166 3
69.5940 1.6073 126.3129 47 50 54 2
68.4929 1.5040 128.3644 47 50 54 2
68.5667 1.2534 132.1450 47 50 54 2
68.8039 1.0858 134.6661 174 174 166 3
69.5878 0.8933 137.3506 107 132 85 1
68.8692 0.7312 141.0695 107 132 85 1
69.5405 0.4666 147.0713 107 132 85 1
69.5672 0.3543 155.8068 107 132 85 1
69.4307 0.7620 168.5390 107 132 85 1
68.8130 1.1704 174.5436 107 132 85 1
68.5202 1.9812 183.6190 107 132 85 1
68.5317 2.2753 186.5233 174 174 166 3
68.4104 2.5433 189.1196 47 50 54 2
69.2262 2.9228 192.6009 47 50 54 2
68.5664 3.1223 194.5936 47 50 54 2
68.5337 3.5335 198.5729 107 132 85 1
68.7029 4.1095 204.4648 107 132 85 1
68.8260 4.3513 207.1421 107 132 85 1
69.0013 4.8003 212.6317 107 132 85 1
69.0805 5.0644 216.2972 107 132 85 1
69.5215 5.2205 218.7771 107 132 85 1
68.8072 5.4507 222.3948 107 132 85 1
68.7055 5.5720 224.5603 107 132 85 1
69.5478 5.7309 227.9952 107 132 85 1
68.7393 6.0086 233.8433 107 132 85 1
69.5771 6.2681 240.4239 47 50 54 2
68.6888 6.3637 242.8777 47 50 54 2
69.5036 6.5049 246.5090 47 50 54 2
68.5925 6.5671 248.4567 174 174 166 3
69.1090 6.8269 255.4507 107 132 85 1
71.7616 6.0396 0.4880 47 50 54 2
71.9156 6.2275 2.3943 47 50 54 2
72.0269 6.6101 6.5506 107 132 85 1
72.5750 7.1007 12.5272 107 132 85 1
71.7621 7.2023 14.3833 107 132 85 1
71.5073 7.3768 17.4412 107 132 85 1
72.3565 7.6429 23.5244 107 132 85 1
71.9777 7.7283 29.5946 107 132 85 1
71.9860 7.7162 32.3548 107 132 85 1
71.4459 7.5430 39.5701 107 132 85 1
72.6083 7.4492 41.3922 174 174 166 3
71.5007 7.2624 45.4129 47 50 54 2
72.3664 7.0836 48.0989 47 50 54 2
72.3786 6.9068 50.7521 47 50 54 2
72.5063 6.6731 53.9809 174 174 166 3
71.4340 6.0285 62.4567 107 132 85 1
72.5641 5.5113 68.9822 107 132 85 1
72.0898 4.6427 80.8919 107 132 85 1
72.3246 3.2554 102.5544 107 132 85 1
72.0382 3.0659 105.3282 107 132 85 1
71.7861 2.8439 108.5429 107 132 85 1
72.5365 2.4467 114.0945 107 132 85 1
71.9246 2.2734 116.4853 107 132 85 1
72.5195 1.5389 126.0783 174 174 166 3
72.3753 1.3205 129.1137 47 50 54 2
72.0776 1.1373 131.8748 47 50 54 2
71.4815 0.9567 134.9814 174 174 166 3
71.8083 0.7478 138.3426 107 132 85 1
72.2372 0.6062 140.8075 107 132 85 1
72.5058 0.4803 143.5121 107 132 85 1
71.4581 0.3257 150.5242 107 132 85 1
71.6971 0.2983 153.3422 107 132 85 1
72.0800 0.3113 156.6349 107 132 85 1
72.4542 0.3425 158.5659 107 132 85 1
71.5416 0.7663 168.5003 107 132 85 1
72.4022 0.9700 171.3674 107 132 85 1
72.5587 1.1230 173.3406 107 132 85 1
71.9304 1.7273 180.3629 107 132 85 1
71.7170 2.2193 185.3905 174 174 166 3
71.9583 2.6253 189.3008 47 50 54 2
72.0569 2.8420 191.3880 47 50 54 2
71.4547 3.1755 194.7353 174 174 166 3
72.0391 3.7723 200.7766 107 132 85 1
71.9110 4.3071 206.7987 107 132 85 1
72.6530 4.7620 212.8086 107 132 85 1
72.1657 5.1972 219.2685 107 132 85 1
72.0892 5.5276 225.0752 107 132 85 1
71.4280 5.7069 228.2860 107 132 85 1
72.5196 5.9810 234.4931 107 132 85 1
71.8667 6.1226 237.3976 174 174 166 3
72.1146 6.2289 239.8302 174 174 166 3
71.6948 6.3951 243.5785 47 50 54 2
72.1939 6.5217 246.4363 47 50 54 2
71.8526 6.6330 249.0710 174 174 166 3
72.3143 6.7378 251.3564 107 132 85 1
72.4904 6.8738 254.4768 174 174 166 3
74.5916 6.1093 0.3048 47 50 54 2
74.6179 6.3107 2.3774 47 50 54 2
75.0405 6.6782 6.2937 174 174 166 3
75.5449 7.3441 15.4373 107 132 85 1
74.5080 7.4558 17.8491 107 132 85 1
75.5891 7.6979 26.4080 107 132 85 1
75.0369 7.3331 42.6218 174 174 166 3
75.0392 7.1830 45.3849 47 50 54 2
75.0013 7.0402 47.7725 47 50 54 2
75.2192 6.8137 51.1376 47 50 54 2
75.0170 6.6235 53.9367 174 174 166 3
75.3234 6.4081 56.8265 107 132 85 1
74.9349 5.9317 63.3380 107 132 85 1
74.5861 5.3294 71.5953 107 132 85 1
74.5147 4.9121 77.6306 107 132 85 1
75.5952 4.7051 81.1483 107 132 85 1
74.6488 4.4925 84.1161 107 132 85 1
74.7645 4.1502 89.5822 107 132 85 1
75.2935 3.7254 96.4249 107 132 85 1
74.3580 3.1202 104.9912 107 132 85 1
75.2807 2.9216 107.8287 107 132 85 1
74.3522 2.4275 114.2324 107 132 85 1
74.6948 2.2332 116.6578 107 132 85 1
74.9293 1.7167 123.0449 107 132 85 1
74.8643 1.4727 126.1594 174 174 166 3
75.5633 1.2333 129.0788 47 50 54 2
74.5993 1.0708 131.6908 47 50 54 2
75.5957 0.8145 135.1674 174 174 166 3
75.1917 0.3989 143.8463 107 132 85 1
74.7844 0.3086 147.3455 107 132 85 1
74.7360 0.2728 149.5196 107 132 85 1
75.2807 0.2554 153.4139 107 132 85 1
75.1802 0.2775 155.5542 107 132 85 1
75.0652 0.3439 158.6510 107 132 85 1
75.3283 1.0262 171.2897 107 132 85 1
74.9415 1.2572 174.3093 107 132 85 1
75.2855 1.8370 180.6304 107 132 85 1
75.5360 2.0801 183.0766 107 132 85 1
74.4681 2.3006 185.5829 174 174 166 3
75.0596 2.7111 189.5635 47 50 54 2
74.8360 2.9189 191.7001 47 50 54 2
74.5567 3.2286 194.9060 174 174 166 3
75.5676 3.8488 201.6518 107 132 85 1
74.9795 4.0214 203.6542 107 132 85 1
74.5708 4.2937 206.9611 107 132 85 1
75.0984 4.7138 212.8228 174 174 166 3
75.3968 4.9278 216.2079 174 174 166 3
75.0383 5.1279 219.3299 174 174 166 3
74.9908 5.2489 221.3913 174 174 166 3
75.1811 5.4764 225.6144 174 174 166 3
75.5864 5.5875 227.9188 174 174 166 3
75.6266 5.7626 231.3029 174 174 166 3
75.1705 5.9217 234.2323 174 174 166 3
75.1498 6.0787 237.3407 174 174 166 3
74.6568 6.2227 240.1192 47 50 54 2
75.6077 6.3319 242.4101 47 50 54 2
74.5172 6.5141 246.0340 47 50 54 2
75.4396 6.6460 248.5973 174 174 166 3
75.3936 6.8431 252.6198 47 50 54 2
74.4640 6.9572 255.4445 174 174 166 3
77.7993 6.1803 0.2073 47 50 54 2
78.5556 6.5161 3.6166 47 50 54 2
78.5758 6.7351 6.1456 174 174 166 3
77.5233 7.1139 11.3419 107 132 85 1
77.6007 7.3342 14.9866 107 132 85 1
77.5771 7.6422 23.8896 107 132 85 1
78.3765 7.6508 26.6439 107 132 85 1
78.3347 7.6414 29.5651 107 132 85 1
77.4942 7.6065 33.3044 107 132 85 1
78.1723 7.4227 38.3766 107 132 85 1
78.0037 7.2340 42.6408 174 174 166 3
77.4793 7.1524 44.5352 47 50 54 2
77.9205 6.9050 48.4731 47 50 54 2
78.1335 6.7154 51.3445 174 174 166 3
77.8600 6.3826 56.4223 107 132 85 1
78.0069 5.6990 66.4011 107 132 85 1
78.2802 5.3597 71.6095 107 132 85 1
78.6125 5.1136 75.6036 107 132 85 1
77.5354 4.9591 77.7861 107 132 85 1
77.8929 4.7365 81.5088 107 132 85 1
78.6440 4.4166 87.0272 107 132 85 1
77.7567 3.9919 93.3192 107 132 85 1
77.4509 3.7863 96.2837 107 132 85 1
78.4949 3.6494 98.5735 107 132 85 1
78.6280 3.1306 105.4940 107 132 85 1
77.9235 2.9301 107.9414 107 132 85 1
78.0085 2.4032 114.3008 107 132 85 1
78.0166 1.7111 122.4374 107 132 85 1
77.8572 1.4193 126.0289 174 174 166 3
78.0807 1.1804 129.0498 47 50 54 2
77.4356 1.0008 131.6995 47 50 54 2
78.1579 0.7670 135.0629 174 174 166 3
77.7383 0.6281 137.6133 174 174 166 3
78.1394 0.3467 144.3514 107 132 85 1
78.5185 0.2711 153.1735 174 174 166 3
77.3411 0.3825 158.9758 107 132 85 1
78.6233 0.5458 162.1652 174 174 166 3
77.3855 0.6320 164.4913 107 132 85 1
77.9393 0.8236 167.3528 174 174 166 3
77.7988 1.0635 170.7856 174 174 166 3
78.4262 1.3207 173.7236 174 174 166 3
78.0579 1.5746 176.8282 174 174 166 3
77.8838 1.8316 179.7240 174 174 166 3
78.5987 2.2096 183.5166 174 174 166 3
78.2835 2.4515 186.1638 174 174 166 3
78.2679 2.7365 189.1812 47 50 54 2
77.3608 3.0362 192.5365 47 50 54 2
78.0719 3.2581 194.8797 174 174 166 3
77.8537 3.4763 197.3651 174 174 166 3
77.6823 3.7586 200.6911 174 174 166 3
77.9824 4.0193 203.9893 174 174 166 3
77.5997 4.2448 206.9113 174 174 166 3
78.4115 4.4359 209.8553 47 50 54 2
78.3694 4.6143 212.5369 47 50 54 2
77.5899 4.8642 216.1623 174 174 166 3
77.5160 5.0081 218.5208 174 174 166 3
78.5345 5.1655 221.7991 47 50 54 2
77.4011 5.3810 225.0312 47 50 54 2
77.4504 5.5271 227.7367 47 50 54 2
77.9225 5.6602 230.4216 47 50 54 2
78.6006 5.8243 233.6936 47 50 54 2
77.4612 6.0015 236.5271 47 50 54 2
77.5498 6.2172 240.5005 47 50 54 2
78.1690 6.3200 242.4400 47 50 54 2
77.7816 6.5145 245.9184 47 50 54 2
77.4759 6.6921 249.2133 47 50 54 2
77.5452 6.8108 251.4524 47 50 54 2
78.5834 7.0067 255.0621 47 50 54 2
80.9672 6.2286 0.1264 47 50 54 2
81.3264 6.5513 3.6262 47 50 54 2
80.8190 6.7817 6.4643 174 174 166 3
81.4831 6.9648 8.9457 174 174 166 3
80.4267 7.1470 11.7215 174 174 166 3
80.5519 7.3442 15.4793 174 174 166 3
81.5623 7.4072 17.5020 174 174 166 3
80.5781 7.5181 20.5539 174 174 166 3
80.8201 7.5713 24.5365 174 174 166 3
80.4919 7.5846 27.6594 174 174 166 3
80.6356 7.5495 30.4211 174 174 166 3
80.6713 7.5063 32.5414 174 174 166 3
81.4063 7.3616 36.2901 174 174 166 3
80.4456 7.3141 38.7088 174 174 166 3
80.6719 7.1277 42.5397 174 174 166 3
81.4934 6.9864 44.5550 47 50 54 2
81.1777 6.7932 48.2889 47 50 54 2
80.7200 6.6593 50.8456 47 50 54 2
81.5733 6.4454 53.8920 174 174 166 3
80.5217 6.2463 57.5625 174 174 166 3
81.5550 6.1135 59.3524 174 174 166 3
80.7424 5.8742 63.4407 174 174 166 3
81.6249 5.7164 65.9633 174 174 166 3
80.9673 5.5108 69.4404 174 174 166 3
80.8633 5.3828 71.6016 174 174 166 3
81.5090 5.2135 74.6548 174 174 166 3
80.5737 4.9998 78.0838 174 174 166 3
81.4801 4.8587 80.8329 174 174 166 3
80.8912 4.6780 83.6727 174 174 166 3
80.3758 4.4740 86.8239 174 174 166 3
81.4079 4.3170 89.7245 174 174 166 3
80.4499 4.0969 92.7306 174 174 166 3
80.6303 3.8303 96.6370 174 174 166 3
80.6671 3.6478 99.1408 174 174 166 3
81.3814 3.3988 102.4911 174 174 166 3
80.7388 3.1898 104.9934 174 174 166 3
80.7027 2.9045 108.4017 174 174 166 3
80.8366 2.6227 111.6571 174 174 166 3
80.4000 2.3796 114.4320 174 174 166 3
80.9449 2.1515 116.9635 174 174 166 3
81.1104 1.8632 120.2051 174 174 166 3
81.0631 1.5797 123.4989 174 174 166 3
81.3687 1.4131 125.4645 174 174 166 3
81.3397 1.1859 128.3478 47 50 54 2
81.5905 0.9219 132.0074 47 50 54 2
80.7604 0.7130 135.4689 174 174 166 3
81.2771 0.5695 138.1944 174 174 166 3
81.2979 0.4425 141.3039 174 174 166 3
80.7380 0.3629 143.8333 174 174 166 3
80.5534 0.2959 147.4969 174 174 166 3
80.5385 0.2845 149.3582 174 174 166 3
80.5457 0.3018 152.6253 174 174 166 3
81.3346 0.3791 155.4868 47 50 54 2
81.5167 0.5289 159.6161 47 50 54 2
80.6862 0.6131 162.0957 174 174 166 3
81.5624 0.7890 164.5903 47 50 54 2
81.4951 1.0437 168.4964 47 50 54 2
80.6117 1.2193 171.3762 47 50 54 2
80.4787 1.4773 174.6252 47 50 54 2
80.7642 1.6523 176.5367 47 50 54 2
81.3163 1.9527 179.7130 47 50 54 2
80.5168 2.1948 182.7181 47 50 54 2
80.8503 2.5370 186.3871 47 50 54 2
80.8796 2.7831 189.1376 47 50 54 2
80.7198 2.9839 191.4583 47 50 54 2
81.4883 3.3282 195.4886 47 50 54 2
81.4685 3.5481 198.2739 47 50 54 2
81.5170 3.7789 201.3488 47 50 54 2
80.4755 3.9450 203.4420 47 50 54 2
81.2104 4.1608 206.7226 47 50 54 2
81.4076 4.3373 209.4904 47 50 54 2
80.9534 4.5949 213.4121 47 50 54 2
81.3353 4.7216 215.7222 47 50 54 2
80.5422 4.9509 219.1945 47 50 54 2
81.2449 5.1233 222.6025 47 50 54 2
80.4131 5.2777 224.8398 47 50 54 2
81.2340 5.3977 227.3790 47 50 54 2
81.0460 5.6091 230.9311 47 50 54 2
80.6471 5.7675 233.4749 47 50 54 2
80.4528 5.9747 236.9223 47 50 54 2
81.0395 6.1278 239.6136 47 50 54 2
81.4776 6.3036 242.5559 47 50 54 2
80.3847 6.5375 246.3412 47 50 54 2
80.7910 6.6676 248.5520 47 50 54 2
80.7730 6.8752 252.1929 47 50 54 2
81.1895 7.0410 255.2497 47 50 54 2
84.4708 6.2475 0.0000 47 50 54 2
84.4530 6.5282 3.2520 47 50 54 2
84.4844 6.6931 5.3661 47 50 54 2
84.0140 6.9237 8.6188 47 50 54 2
84.4987 7.0846 11.5350 47 50 54 2
83.9068 7.2532 14.8989 47 50 54 2
83.5814 7.3800 18.4569 47 50 54 2
84.4272 7.3965 20.8932 47 50 54 2
83.5226 7.4650 24.2116 47 50 54 2
83.8634 7.4462 26.3647 47 50 54 2
83.9845 7.4001 29.7985 47 50 54 2
84.4488 7.3023 32.9896 47 50 54 2
84.3807 7.1921 36.5757 47 50 54 2
83.5885 7.1500 38.8263 47 50 54 2
84.0546 6.9989 41.6970 47 50 54 2
83.9474 6.8467 44.9662 47 50 54 2
83.6110 6.6814 48.4347 47 50 54 2
83.5826 6.5089 51.5995 47 50 54 2
83.4898 6.3785 53.9840 47 50 54 2
84.3851 6.1830 57.0355 47 50 54 2
84.1025 6.0211 60.1272 47 50 54 2
83.7345 5.8470 63.4149 47 50 54 2
84.3689 5.7270 65.5642 47 50 54 2
83.5139 5.5804 68.3421 47 50 54 2
84.0549 5.3958 71.8578 47 50 54 2
83.7315 5.2018 75.4365 47 50 54 2
84.5145 5.0501 78.4858 47 50 54 2
83.9335 4.8642 81.6417 47 50 54 2
83.4532 4.7534 83.3912 47 50 54 2
83.8861 4.5379 87.1328 47 50 54 2
84.1667 4.3227 90.5735 47 50 54 2
84.6459 4.1420 93.3383 47 50 54 2
83.8510 3.9224 96.1751 47 50 54 2
84.0080 3.7159 98.9077 47 50 54 2
83.6733 3.4646 101.9835 47 50 54 2
83.4357 3.2151 104.9300 47 50 54 2
83.7180 2.9445 108.0406 47 50 54 2
84.2826 2.6649 111.1400 47 50 54 2
84.1912 2.3775 114.2723 47 50 54 2
83.3901 2.0770 117.6039 47 50 54 2
83.7012 1.9017 119.5315 47 50 54 2
83.5930 1.6514 122.3919 47 50 54 2
83.8477 1.3017 126.6151 47 50 54 2
84.6215 1.1553 128.5228 47 50 54 2
83.6242 0.8979 132.2800 47 50 54 2
83.4736 0.7296 135.1222 47 50 54 2
84.1791 0.6176 137.4951 47 50 54 2
84.6443 0.4923 141.0853 47 50 54 2
83.8820 0.4020 144.2198 47 50 54 2
84.2012 0.3820 146.5493 47 50 54 2
84.4180 0.3937 150.1689 47 50 54 2
84.3133 0.4460 153.6235 47 50 54 2
83.4703 0.4933 156.5652 47 50 54 2
83.7357 0.5784 158.4939 47 50 54 2
83.6307 0.7539 162.2527 47 50 54 2
84.2161 0.9687 165.3601 47 50 54 2
84.5170 1.1850 168.3340 47 50 54 2
84.2885 1.4091 171.5468 47 50 54 2
83.5412 1.5883 174.2997 47 50 54 2
84.4639 1.8956 177.5309 47 50 54 2
84.4371 2.1194 180.2476 47 50 54 2
83.9935 2.2968 182.5636 47 50 54 2
83.3891 2.5606 185.9086 47 50 54 2
84.6042 2.8444 189.0503 47 50 54 2
83.5426 3.0821 192.2433 47 50 54 2
83.8384 3.3120 195.2103 47 50 54 2
83.3923 3.5097 197.8740 47 50 54 2
83.7676 3.7332 201.0861 47 50 54 2
84.2569 3.9572 204.6080 47 50 54 2
83.5693 4.1375 207.2119 47 50 54 2
84.0686 4.2666 209.5320 47 50 54 2
83.6235 4.4975 213.1860 47 50 54 2
83.8578 4.6414 215.7850 47 50 54 2
83.7882 4.8387 219.1573 47 50 54 2
84.2588 4.9782 221.8389 47 50 54 2
83.9989 5.1616 224.8106 47 50 54 2
84.6446 5.3490 228.2430 47 50 54 2
84.2163 5.5491 231.2776 47 50 54 2
84.4559 5.6896 233.5841 47 50 54 2
83.9077 5.9201 236.9934 47 50 54 2
83.3425 6.1020 239.6775 47 50 54 2
83.7707 6.3346 243.3485 47 50 54 2
83.4092 6.5033 245.9455 47 50 54 2
83.4974 6.6989 249.0957 47 50 54 2
84.5552 6.9052 252.6182 174 174 166 3
83.4170 7.0450 255.1620 174 174 166 3
87.0241 6.2466 0.0000 47 50 54 2
87.0313 6.4792 2.8576 47 50 54 2
86.6142 6.7416 6.4421 47 50 54 2
87.2433 6.8668 8.7374 47 50 54 2
86.9485 7.0361 11.9479 47 50 54 2
86.5459 7.1631 14.8341 47 50 54 2
86.7284 7.2270 17.3443 47 50 54 2
87.0906 7.2723 21.6576 47 50 54 2
86.7064 7.3005 23.4667 47 50 54 2
86.8281 7.2756 26.8441 47 50 54 2
86.8488 7.2282 29.8413 47 50 54 2
86.5874 7.1665 33.1254 47 50 54 2
86.8840 7.0749 35.4762 47 50 54 2
87.1141 6.9403 38.7965 47 50 54 2
87.5668 6.7622 42.4702 47 50 54 2
87.2475 6.6871 44.6167 47 50 54 2
86.6155 6.5703 47.8580 47 50 54 2
87.3683 6.3838 51.0565 47 50 54 2
86.8648 6.2669 53.9225 47 50 54 2
87.2610 6.0856 57.4747 47 50 54 2
87.4659 5.9353 60.6186 47 50 54 2
87.2945 5.8375 62.8047 47 50 54 2
87.2655 5.7175 65.4241 47 50 54 2
87.2093 5.5557 68.9389 47 50 54 2
87.6216 5.4211 71.8739 47 50 54 2
87.4108 5.2419 75.5888 47 50 54 2
87.6035 5.1005 78.4583 47 50 54 2
87.3597 4.9324 81.5545 47 50 54 2
86.6424 4.7600 84.3706 47 50 54 2
87.1197 4.6109 86.9740 47 50 54 2
86.9483 4.4377 89.6170 47 50 54 2
86.8460 4.1806 93.2935 47 50 54 2
86.7411 3.9342 96.5543 47 50 54 2
87.1786 3.7404 99.0352 47 50 54 2
86.5870 3.4437 102.5050 47 50 54 2
86.8190 3.2073 105.2033 47 50 54 2
86.8825 2.9092 108.4807 47 50 54 2
87.2596 2.7030 110.7007 47 50 54 2
87.1351 2.3593 114.3829 47 50 54 2
87.1965 2.0599 117.6309 47 50 54 2
86.9864 1.8638 119.8189 47 50 54 2
87.0601 1.5602 123.3614 47 50 54 2
87.0679 1.3266 126.3059 47 50 54 2
86.8568 1.1708 128.4160 47 50 54 2
87.0900 0.9112 132.5025 47 50 54 2
86.6611 0.7897 134.6264 47 50 54 2
87.0313 0.6409 138.2470 47 50 54 2
