ply
format ascii 1.0
comment generated by citygen
element vertex 1289
property float x
property float y
property float z
property uchar red
property uchar green
property uchar blue
property int class
end_header
81.1673 0.0981 177.0977 174 174 166 3
80.5814 0.0483 179.8816 47 50 54 2
81.0677 -0.0012 183.1447 47 50 54 2
81.0181 -0.0549 186.3684 47 50 54 2
81.1994 -0.1007 189.1823 174 174 166 3
81.0652 -0.1552 192.2165 107 132 85 1
81.1369 -0.2551 197.6166 174 174 166 3
81.1478 -0.3213 200.9485 174 174 166 3
81.2643 -0.3844 204.0242 47 50 54 2
81.4462 -0.4561 207.4006 47 50 54 2
80.8387 -0.5072 209.5244 47 50 54 2
81.3388 -0.5771 212.7919 47 50 54 2
81.1214 -0.6503 216.0128 47 50 54 2
80.6593 -0.7141 218.8174 174 174 166 3
80.5554 -0.7791 221.8748 174 174 166 3
81.0890 -0.8466 225.4382 107 132 85 1
81.4166 -0.8836 227.6047 107 132 85 1
81.2105 -0.9730 233.5792 107 132 85 1
81.3151 -1.0091 237.2388 107 132 85 1
80.5809 -1.0367 240.3523 107 132 85 1
81.2858 -1.0363 242.8167 107 132 85 1
80.5838 -1.0080 251.9802 107 132 85 1
80.9270 -0.9628 255.2629 47 50 54 2
83.7391 -0.8421 6.2121 107 132 85 1
83.5915 -0.7955 12.2889 107 132 85 1
84.0320 -0.7640 14.5629 107 132 85 1
84.0083 -0.7292 18.2503 107 132 85 1
83.7258 -0.5297 39.1568 174 174 166 3
83.8604 -0.5022 41.7967 174 174 166 3
84.2583 -0.4669 45.0147 47 50 54 2
84.3730 -0.4320 48.0100 47 50 54 2
83.9910 -0.3951 50.8657 47 50 54 2
83.6442 -0.3463 54.2125 47 50 54 2
83.9233 -0.3092 56.5622 47 50 54 2
84.1452 -0.2500 59.9350 47 50 54 2
83.5942 -0.1888 63.0005 174 174 166 3
83.5770 -0.1278 65.8361 174 174 166 3
83.9547 -0.0461 69.3355 47 50 54 2
84.2263 0.0256 72.1750 47 50 54 2
84.3985 0.1103 75.3445 47 50 54 2
83.6382 0.1823 77.9351 174 174 166 3
83.9333 0.3560 83.9854 107 132 85 1
84.0256 0.5210 89.7868 107 132 85 1
83.9538 0.6838 95.9909 174 174 166 3
83.9441 0.7638 99.4705 47 50 54 2
83.8063 0.8141 101.8747 47 50 54 2
83.8859 0.8643 104.7163 47 50 54 2
83.8377 0.9179 108.4172 174 174 166 3
84.4438 0.9370 111.1611 107 132 85 1
84.4609 0.9634 120.2941 107 132 85 1
83.7645 0.9684 123.1845 174 174 166 3
84.0676 0.9446 125.6314 47 50 54 2
84.2312 0.9033 129.4230 47 50 54 2
84.1759 0.8751 131.8072 47 50 54 2
84.3805 0.7313 140.5571 107 132 85 1
83.8378 0.6725 144.4501 107 132 85 1
84.2636 0.6212 146.6960 174 174 166 3
83.9058 0.5708 149.7251 47 50 54 2
83.6126 0.5186 152.7203 47 50 54 2
84.0310 0.4553 155.8225 47 50 54 2
83.6933 0.3945 159.4221 174 174 166 3
83.8294 0.3033 164.7514 107 132 85 1
83.8175 0.2563 167.6957 107 132 85 1
84.4343 0.2029 171.2531 107 132 85 1
83.8032 0.1535 174.4540 107 132 85 1
84.1273 0.1233 176.6077 107 132 85 1
83.7771 0.0666 180.2608 47 50 54 2
83.7905 0.0213 183.2333 47 50 54 2
83.8718 -0.0183 185.7898 47 50 54 2
83.6355 -0.0724 188.9386 47 50 54 2
83.9777 -0.1142 191.5356 174 174 166 3
83.6716 -0.1735 194.6237 174 174 166 3
83.8238 -0.2314 197.6850 47 50 54 2
84.0605 -0.2884 200.5793 47 50 54 2
84.0412 -0.3559 203.7282 47 50 54 2
83.9543 -0.4210 206.6361 47 50 54 2
84.1005 -0.5066 210.4569 47 50 54 2
84.2763 -0.5719 213.3653 174 174 166 3
83.7651 -0.6277 215.6883 174 174 166 3
83.7119 -0.7103 219.4362 107 132 85 1
84.1461 -0.8248 225.3613 107 132 85 1
84.0055 -0.8675 227.7893 107 132 85 1
83.5400 -0.9970 239.5622 107 132 85 1
83.6115 -1.0028 243.3568 107 132 85 1
83.9526 -0.9910 245.9259 107 132 85 1
83.7706 -0.9071 255.1304 47 50 54 2
86.5516 -0.8000 0.0000 107 132 85 1
87.0514 -0.7518 6.3978 107 132 85 1
87.3910 -0.6203 23.7092 107 132 85 1
86.9773 -0.6024 27.1741 107 132 85 1
87.2153 -0.5405 35.6243 107 132 85 1
86.5458 -0.5156 39.3269 107 132 85 1
87.1342 -0.4874 42.3093 107 132 85 1
86.8607 -0.4639 44.8784 174 174 166 3
86.6929 -0.4329 47.8028 174 174 166 3
87.4214 -0.3932 50.9953 47 50 54 2
86.5250 -0.3463 54.3640 47 50 54 2
86.7525 -0.2965 57.4432 47 50 54 2
86.7324 -0.2581 59.5938 47 50 54 2
86.8177 -0.1826 63.3893 47 50 54 2
86.9545 -0.1213 66.1668 47 50 54 2
87.1059 -0.0598 68.7516 47 50 54 2
86.6980 0.0180 71.8494 47 50 54 2
87.3887 0.0980 74.8276 174 174 166 3
87.3522 0.1777 77.7230 107 132 85 1
86.9633 0.3534 83.9605 107 132 85 1
87.4006 0.4376 87.0233 107 132 85 1
87.1622 0.5129 89.8147 107 132 85 1
87.0626 0.5853 92.6428 107 132 85 1
86.7960 0.6650 95.9443 107 132 85 1
86.7859 0.7258 98.7960 174 174 166 3
87.0473 0.7796 101.8666 47 50 54 2
86.8546 0.8354 105.4006 47 50 54 2
86.9100 0.8667 108.1777 47 50 54 2
87.1402 0.8843 110.8211 174 174 166 3
86.6063 0.9123 114.1767 107 132 85 1
87.0858 0.9005 119.5740 107 132 85 1
87.2748 0.8767 123.2891 174 174 166 3
87.1583 0.8572 126.1214 47 50 54 2
86.7232 0.8344 129.4767 47 50 54 2
86.9008 0.7980 131.9842 47 50 54 2
87.2388 0.7433 135.1974 107 132 85 1
86.5999 0.7170 138.0542 107 132 85 1
86.6006 0.6660 141.1870 107 132 85 1
87.2987 0.6048 143.8797 107 132 85 1
87.0798 0.5599 146.9090 174 174 166 3
87.4091 0.4971 150.4198 47 50 54 2
86.6578 0.4706 152.8473 47 50 54 2
86.7079 0.4151 156.3439 47 50 54 2
87.0388 0.3266 162.2612 107 132 85 1
86.9264 0.2929 164.7860 107 132 85 1
87.0336 0.2548 167.6658 107 132 85 1
87.4487 0.2131 170.9790 107 132 85 1
86.8736 0.1767 173.7145 107 132 85 1
86.9625 0.0917 180.1317 174 174 166 3
86.7473 0.0521 182.8001 47 50 54 2
87.1326 0.0035 186.2156 47 50 54 2
86.8776 -0.0406 188.8051 47 50 54 2
87.2264 -0.0923 191.9531 47 50 54 2
87.2616 -0.1402 194.5450 47 50 54 2
87.3322 -0.2157 198.3671 47 50 54 2
86.9150 -0.2801 201.2641 47 50 54 2
86.7534 -0.3368 203.7935 47 50 54 2
86.7376 -0.4000 206.5965 47 50 54 2
87.1548 -0.4674 209.6639 174 174 166 3
86.8593 -0.5466 213.0277 107 132 85 1
87.3935 -0.6133 216.1792 107 132 85 1
86.5251 -0.6776 218.8491 107 132 85 1
87.1555 -0.7323 221.8169 107 132 85 1
87.2289 -0.7960 225.3750 107 132 85 1
86.7679 -0.8434 228.0474 107 132 85 1
87.3477 -0.9260 237.3049 107 132 85 1
86.8300 -0.9434 239.7053 107 132 85 1
86.8340 -0.9423 243.4301 107 132 85 1
87.4097 -0.8996 248.5705 107 132 85 1
87.2345 -0.8614 252.4666 107 132 85 1
86.7769 -0.8386 254.9130 47 50 54 2
90.4434 -0.5809 21.0418 107 132 85 1
89.6029 -0.5816 24.0114 107 132 85 1
90.2297 -0.4741 42.2933 107 132 85 1
90.4265 -0.4189 48.2353 107 132 85 1
90.1352 -0.3858 51.1328 174 174 166 3
89.7218 -0.3544 53.5354 174 174 166 3
89.9772 -0.3038 56.7506 47 50 54 2
90.2879 -0.2364 60.4543 47 50 54 2
90.4000 -0.1928 62.6174 47 50 54 2
89.8691 -0.1141 66.2672 47 50 54 2
89.9820 -0.0501 68.9442 47 50 54 2
89.9607 0.0327 72.2219 174 174 166 3
90.0746 0.1045 74.9351 174 174 166 3
89.7520 0.1988 78.4248 107 132 85 1
89.7673 0.3464 83.8357 107 132 85 1
90.2189 0.6951 99.3234 174 174 166 3
89.9902 0.7395 102.0034 47 50 54 2
89.7522 0.7824 105.0978 47 50 54 2
90.4082 0.7975 108.3195 47 50 54 2
90.1867 0.8154 110.5837 47 50 54 2
89.5320 0.8421 114.3784 107 132 85 1
89.5702 0.8395 117.1198 107 132 85 1
89.5739 0.8123 122.9110 174 174 166 3
90.2964 0.7616 126.2418 47 50 54 2
90.3409 0.7268 129.3985 47 50 54 2
90.3779 0.6905 132.3201 174 174 166 3
90.3300 0.6556 135.1108 107 132 85 1
89.9026 0.6317 137.7486 107 132 85 1
90.2950 0.5815 140.5568 107 132 85 1
90.2399 0.5340 144.0577 174 174 166 3
89.9622 0.5001 146.9413 47 50 54 2
89.6096 0.4694 149.6688 47 50 54 2
90.3500 0.4135 153.0501 47 50 54 2
89.9653 0.3844 155.8523 174 174 166 3
90.0497 0.3453 159.1290 107 132 85 1
90.2642 0.2805 165.0141 107 132 85 1
89.9787 0.2153 171.2202 107 132 85 1
89.7662 0.1862 173.8122 107 132 85 1
89.9848 0.0669 183.4240 174 174 166 3
89.5368 0.0240 186.1065 47 50 54 2
90.3157 -0.0197 189.1748 47 50 54 2
90.0305 -0.0759 192.2660 47 50 54 2
89.9967 -0.1213 194.6697 47 50 54 2
89.9543 -0.1808 197.6320 47 50 54 2
90.3346 -0.2543 201.2247 47 50 54 2
89.7911 -0.3111 203.6263 174 174 166 3
90.1604 -0.4540 210.0384 107 132 85 1
90.0920 -0.5263 213.2298 107 132 85 1
89.5539 -0.6524 218.9375 107 132 85 1
90.3114 -0.6996 221.8547 107 132 85 1
89.5531 -0.7629 225.0470 107 132 85 1
90.0625 -0.8314 230.9126 107 132 85 1
90.4441 -0.8622 236.7405 107 132 85 1
89.9872 -0.8689 243.4655 107 132 85 1
89.8852 -0.8545 246.3493 107 132 85 1
90.0076 -0.8322 248.5339 107 132 85 1
92.6092 -0.6179 0.0270 107 132 85 1
93.2515 -0.5870 2.8977 107 132 85 1
93.2821 -0.5137 26.7923 107 132 85 1
93.0392 -0.5091 30.1406 107 132 85 1
93.1670 -0.4990 33.1794 107 132 85 1
93.1939 -0.4893 35.9068 107 132 85 1
93.3754 -0.4543 42.4021 107 132 85 1
92.9393 -0.4385 44.8964 107 132 85 1
92.8337 -0.3423 53.5772 107 132 85 1
93.1457 -0.2909 56.8060 174 174 166 3
93.1695 -0.2391 59.7293 47 50 54 2
93.0189 -0.1740 63.0447 47 50 54 2
93.2278 -0.1040 66.1961 47 50 54 2
93.0979 -0.0495 68.5515 47 50 54 2
93.2215 0.0319 71.8461 47 50 54 2
93.1245 0.1123 75.0082 47 50 54 2
92.8161 0.1895 77.9957 174 174 166 3
93.2713 0.3522 84.3936 107 132 85 1
93.0737 0.4196 87.1686 107 132 85 1
93.3713 0.6475 99.4540 107 132 85 1
92.7196 0.6872 101.6694 174 174 166 3
92.5865 0.7232 104.9577 47 50 54 2
93.1488 0.7314 108.3216 47 50 54 2
93.0678 0.7419 110.9941 47 50 54 2
93.2316 0.7377 114.2656 174 174 166 3
92.8468 0.7413 117.4036 107 132 85 1
92.5702 0.7394 119.6603 107 132 85 1
92.9085 0.7041 123.1825 174 174 166 3
92.8307 0.6802 126.1729 47 50 54 2
92.9944 0.6448 129.1093 47 50 54 2
93.3263 0.6047 131.7568 47 50 54 2
92.5304 0.5530 138.1104 107 132 85 1
93.2244 0.5036 140.6405 174 174 166 3
93.1463 0.4682 143.8848 47 50 54 2
93.4272 0.4302 146.8118 47 50 54 2
93.2802 0.3964 150.4296 47 50 54 2
92.7138 0.3830 152.6998 47 50 54 2
93.4572 0.3457 155.7121 107 132 85 1
92.8338 0.3237 159.0017 107 132 85 1
93.1023 0.2970 161.9792 107 132 85 1
92.6074 0.1612 177.0611 174 174 166 3
93.0160 0.1258 180.2941 174 174 166 3
92.6742 0.0885 183.0534 47 50 54 2
93.3053 0.0501 185.9949 47 50 54 2
93.4153 -0.0017 189.2984 47 50 54 2
93.3640 -0.0438 191.7083 47 50 54 2
92.6041 -0.1021 194.5879 47 50 54 2
93.3241 -0.1740 198.3824 174 174 166 3
93.2789 -0.2225 200.6610 174 174 166 3
93.1761 -0.2938 203.8975 107 132 85 1
93.2360 -0.3532 206.5902 107 132 85 1
92.6232 -0.4412 210.3410 107 132 85 1
93.0792 -0.4949 213.0038 107 132 85 1
93.1511 -0.5599 216.2037 107 132 85 1
93.3324 -0.6021 218.5242 107 132 85 1
92.9475 -0.7082 224.6986 107 132 85 1
92.8223 -0.7830 231.4438 107 132 85 1
93.2382 -0.7875 233.7447 107 132 85 1
92.8246 -0.7959 242.7221 107 132 85 1
93.0826 -0.7701 245.5223 107 132 85 1
93.4314 -0.7301 248.6133 107 132 85 1
93.1797 -0.6915 252.3748 107 132 85 1
93.0439 -0.6624 254.6695 107 132 85 1
95.9704 -0.5105 0.0000 107 132 85 1
96.0449 -0.4721 23.7477 107 132 85 1
95.8588 -0.4720 30.4592 107 132 85 1
96.0626 -0.4667 32.7314 107 132 85 1
96.0638 -0.4594 36.2640 107 132 85 1
96.3043 -0.4490 38.6679 107 132 85 1
95.6676 -0.4219 44.5473 107 132 85 1
95.7481 -0.2748 56.8301 174 174 166 3
95.9646 -0.2227 59.7168 47 50 54 2
95.7158 -0.1608 62.9649 47 50 54 2
96.1951 -0.0932 65.9943 47 50 54 2
95.6827 -0.0195 69.3392 47 50 54 2
96.0320 0.0546 72.3793 47 50 54 2
95.7298 0.1134 74.8262 47 50 54 2
95.5877 0.1926 78.0542 47 50 54 2
96.0829 0.2542 80.6227 47 50 54 2
96.2678 0.3392 84.3611 174 174 166 3
95.8025 0.5933 98.7083 107 132 85 1
95.8726 0.6257 102.1704 174 174 166 3
96.4778 0.6284 104.9175 174 174 166 3
96.3740 0.6419 108.0677 47 50 54 2
96.0344 0.6545 111.1264 47 50 54 2
95.6660 0.6615 114.1255 174 174 166 3
96.2897 0.6284 117.2084 107 132 85 1
96.2471 0.6103 120.4283 107 132 85 1
96.4734 0.5805 123.2860 174 174 166 3
96.4157 0.5618 125.7013 47 50 54 2
95.7919 0.5547 128.7499 47 50 54 2
95.9675 0.5119 132.4508 174 174 166 3
95.7994 0.4592 138.2113 107 132 85 1
95.6769 0.4321 141.3682 174 174 166 3
96.4664 0.3916 143.7828 47 50 54 2
95.5668 0.3862 146.8440 47 50 54 2
95.6873 0.3621 149.6159 47 50 54 2
96.1503 0.3313 153.0336 174 174 166 3
95.8537 0.3186 155.6910 107 132 85 1
96.4423 0.2918 159.4198 107 132 85 1
96.1201 0.2615 165.2484 107 132 85 1
95.8658 0.2217 171.3044 174 174 166 3
96.4063 0.1994 174.1801 174 174 166 3
96.1378 0.1734 176.9884 47 50 54 2
95.9332 0.1412 179.9789 47 50 54 2
96.1372 0.1022 183.2214 47 50 54 2
95.7834 0.0667 185.6860 47 50 54 2
95.9218 0.0178 188.8877 47 50 54 2
95.7187 -0.0372 192.0392 47 50 54 2
96.0659 -0.0903 194.9750 47 50 54 2
96.3733 -0.1455 197.8447 174 174 166 3
96.2914 -0.2192 201.3830 107 132 85 1
96.1427 -0.2830 204.3371 107 132 85 1
96.1398 -0.5152 215.7187 107 132 85 1
96.1700 -0.5638 218.5355 107 132 85 1
95.8455 -0.6273 222.3769 107 132 85 1
95.8133 -0.6563 224.5921 107 132 85 1
95.6474 -0.7138 230.5706 107 132 85 1
96.2069 -0.7126 233.5838 107 132 85 1
95.7891 -0.7270 237.1537 107 132 85 1
95.5691 -0.7111 243.0421 107 132 85 1
95.7938 -0.6082 252.2174 107 132 85 1
98.8944 -0.4156 0.0000 107 132 85 1
98.6619 -0.4254 23.6682 107 132 85 1
99.0881 -0.4227 26.5426 107 132 85 1
99.2393 -0.4257 33.0285 107 132 85 1
98.8361 -0.4285 35.7883 107 132 85 1
99.2323 -0.4160 39.0288 107 132 85 1
98.5722 -0.3635 48.2975 107 132 85 1
98.8005 -0.3327 50.9347 107 132 85 1
99.2142 -0.2889 53.9925 107 132 85 1
99.1326 -0.2479 56.7613 174 174 166 3
98.7042 -0.2037 59.5830 47 50 54 2
99.0306 -0.1301 63.2985 47 50 54 2
99.0527 -0.0692 66.2448 47 50 54 2
98.6123 -0.0224 68.5300 174 174 166 3
98.8092 0.0651 72.3842 47 50 54 2
98.5754 0.1147 74.5975 47 50 54 2
98.7772 0.1899 77.9279 47 50 54 2
99.2388 0.2576 81.1198 47 50 54 2
99.4109 0.3159 84.0923 47 50 54 2
99.0116 0.3694 86.8258 174 174 166 3
99.3755 0.4107 89.5475 174 174 166 3
98.7816 0.4750 93.4603 107 132 85 1
99.1780 0.4992 96.1845 107 132 85 1
98.8456 0.5279 98.5363 107 132 85 1
98.8057 0.5521 101.9349 107 132 85 1
99.2684 0.5515 105.3876 174 174 166 3
98.5896 0.5750 108.4330 47 50 54 2
98.5827 0.5734 110.5357 47 50 54 2
99.0243 0.5471 114.1822 47 50 54 2
98.9848 0.5319 117.3761 174 174 166 3
98.7522 0.5255 119.6839 107 132 85 1
98.7040 0.5014 123.1457 174 174 166 3
99.3805 0.4542 125.9278 47 50 54 2
98.9790 0.4392 129.4103 47 50 54 2
99.4342 0.4038 131.8350 47 50 54 2
98.9797 0.3927 135.0668 107 132 85 1
98.5514 0.3843 137.8056 174 174 166 3
99.3738 0.3416 140.7751 47 50 54 2
99.3510 0.3223 144.3170 47 50 54 2
99.1793 0.3120 147.2082 47 50 54 2
99.2484 0.2984 150.2166 174 174 166 3
98.5654 0.2771 158.7841 107 132 85 1
99.3630 0.2603 162.1248 107 132 85 1
99.2779 0.2502 165.1518 174 174 166 3
98.7631 0.2404 167.7940 174 174 166 3
98.7945 0.2253 170.5890 47 50 54 2
98.6860 0.1991 174.4463 47 50 54 2
98.9270 0.1782 176.9608 47 50 54 2
98.9680 0.1441 180.3735 47 50 54 2
99.4657 0.1126 183.1178 47 50 54 2
99.0057 0.0727 186.0074 47 50 54 2
98.5982 0.0190 189.4289 47 50 54 2
98.9381 -0.0171 191.6377 47 50 54 2
99.3331 -0.0724 194.7813 47 50 54 2
99.1336 -0.1409 198.3099 174 174 166 3
98.8642 -0.1880 200.6026 174 174 166 3
99.0707 -0.2592 204.1839 107 132 85 1
99.3890 -0.3193 207.3290 107 132 85 1
98.5746 -0.3799 210.0413 107 132 85 1
98.8746 -0.4391 213.4349 107 132 85 1
99.2553 -0.4725 215.7330 107 132 85 1
99.0498 -0.5614 221.9117 107 132 85 1
99.4747 -0.6163 231.3320 107 132 85 1
98.7433 -0.6026 243.3460 107 132 85 1
99.1364 -0.4995 251.6504 107 132 85 1
102.4382 -0.3007 0.0000 107 132 85 1
101.5264 -0.3730 23.6152 107 132 85 1
102.1733 -0.3720 26.9910 107 132 85 1
101.9420 -0.3835 30.1043 107 132 85 1
102.3140 -0.3197 48.3816 107 132 85 1
102.4131 -0.2498 54.2358 174 174 166 3
102.3009 -0.2136 56.7984 47 50 54 2
101.7665 -0.1735 59.6079 47 50 54 2
101.6047 -0.1062 63.3855 47 50 54 2
101.7273 -0.0537 66.0201 174 174 166 3
101.8548 0.0083 69.0470 107 132 85 1
101.9110 0.0612 71.6203 174 174 166 3
102.0976 0.1389 75.4421 47 50 54 2
102.3645 0.1864 77.9035 47 50 54 2
102.3154 0.2489 81.3417 47 50 54 2
101.9652 0.3006 84.3002 47 50 54 2
102.3523 0.3311 86.5753 47 50 54 2
102.2270 0.3727 89.6378 47 50 54 2
101.5560 0.4253 93.4381 174 174 166 3
101.9661 0.4405 96.3322 107 132 85 1
101.6228 0.4770 107.6649 174 174 166 3
102.0979 0.4501 111.1497 47 50 54 2
102.2100 0.4325 113.9811 47 50 54 2
102.3487 0.4116 116.6556 47 50 54 2
101.7985 0.4122 119.6869 174 174 166 3
102.2469 0.3733 122.7639 174 174 166 3
102.4056 0.3458 125.7826 47 50 54 2
101.8800 0.3438 128.7403 47 50 54 2
102.0465 0.3152 132.2335 174 174 166 3
101.5238 0.3143 135.1507 107 132 85 1
101.8853 0.2882 138.1796 174 174 166 3
102.3667 0.2632 141.4786 47 50 54 2
102.1173 0.2612 144.4059 47 50 54 2
101.5963 0.2669 146.6025 47 50 54 2
101.5490 0.2610 150.1540 174 174 166 3
102.3813 0.2460 152.6678 107 132 85 1
102.0750 0.2484 155.5999 107 132 85 1
101.8524 0.2478 159.2914 107 132 85 1
102.2142 0.2424 161.6307 174 174 166 3
101.6488 0.2403 164.7746 174 174 166 3
102.3455 0.2291 167.7028 47 50 54 2
101.8310 0.2175 170.9910 47 50 54 2
101.9959 0.2027 173.5700 47 50 54 2
102.1354 0.1754 177.2476 47 50 54 2
102.4362 0.1524 179.7176 47 50 54 2
101.9261 0.1220 182.5326 174 174 166 3
102.0132 0.0730 186.3245 107 132 85 1
102.1054 0.0383 188.6914 174 174 166 3
102.1787 -0.0109 191.7728 47 50 54 2
102.4079 -0.0695 195.2014 47 50 54 2
102.1268 -0.1177 197.8012 47 50 54 2
102.3459 -0.1802 201.2301 174 174 166 3
102.0334 -0.2362 204.1251 107 132 85 1
102.0632 -0.2833 206.7187 107 132 85 1
102.3100 -0.3296 209.5318 107 132 85 1
102.0432 -0.3958 213.4734 107 132 85 1
102.1561 -0.4303 216.0526 107 132 85 1
101.7219 -0.5010 221.5449 107 132 85 1
102.3519 -0.5270 233.5482 107 132 85 1
102.0997 -0.5252 236.7832 107 132 85 1
101.8765 -0.4349 248.6619 107 132 85 1
104.9057 -0.2221 0.3272 107 132 85 1
104.6613 -0.2321 2.9927 107 132 85 1
104.9973 -0.3075 23.6606 107 132 85 1
105.1578 -0.3306 30.3136 107 132 85 1
105.4157 -0.3321 33.1513 107 132 85 1
105.1975 -0.3373 35.7787 107 132 85 1
105.1246 -0.3335 39.3548 107 132 85 1
104.8265 -0.2863 48.1894 107 132 85 1
105.2691 -0.2525 50.8809 107 132 85 1
105.0668 -0.2156 54.1728 174 174 166 3
104.7827 -0.1837 56.7263 47 50 54 2
105.2674 -0.1192 60.4698 47 50 54 2
104.9423 -0.0748 63.3188 47 50 54 2
105.3045 -0.0273 65.8259 174 174 166 3
104.7184 0.0221 68.8224 107 132 85 1
105.2686 0.0771 71.7229 107 132 85 1
104.5334 0.1327 74.9870 174 174 166 3
104.6261 0.1850 78.0839 174 174 166 3
105.4058 0.2286 81.2242 47 50 54 2
105.0938 0.2717 84.3398 47 50 54 2
105.2451 0.2947 86.5392 47 50 54 2
105.2297 0.3233 89.5766 47 50 54 2
105.1673 0.3475 92.8684 47 50 54 2
105.0607 0.3627 95.5587 47 50 54 2
104.9132 0.3757 99.1793 174 174 166 3
105.2811 0.3651 101.8658 107 132 85 1
104.8060 0.3748 105.1923 107 132 85 1
105.0510 0.3569 107.9614 174 174 166 3
105.2925 0.3357 110.5738 47 50 54 2
104.7613 0.3389 113.5623 47 50 54 2
104.7077 0.3216 116.6534 47 50 54 2
105.2607 0.2774 120.1335 174 174 166 3
105.3069 0.2567 123.0812 174 174 166 3
104.6625 0.2651 125.5884 47 50 54 2
104.6604 0.2475 128.6932 47 50 54 2
105.4550 0.2051 132.3315 174 174 166 3
104.6821 0.2214 134.5694 174 174 166 3
105.4098 0.1929 137.7918 47 50 54 2
105.1270 0.1967 141.3987 47 50 54 2
105.1679 0.1959 144.2044 47 50 54 2
105.0629 0.2003 147.1095 174 174 166 3
105.3444 0.2051 152.8440 107 132 85 1
105.2596 0.2126 156.2843 174 174 166 3
105.2776 0.2160 158.5695 174 174 166 3
105.2648 0.2193 162.1489 47 50 54 2
105.0212 0.2204 164.9526 47 50 54 2
104.7434 0.2172 167.9760 47 50 54 2
105.0848 0.2062 170.9854 47 50 54 2
104.9274 0.1931 173.8410 47 50 54 2
105.2105 0.1720 176.8780 174 174 166 3
105.2966 0.1404 180.4767 107 132 85 1
104.7946 0.1090 183.4645 107 132 85 1
104.9422 0.0777 185.9606 107 132 85 1
105.3580 -0.0034 191.5803 174 174 166 3
105.2382 -0.0530 194.6754 47 50 54 2
104.7322 -0.1055 197.7079 47 50 54 2
105.3991 -0.1619 201.2410 174 174 166 3
104.9065 -0.2129 204.1018 107 132 85 1
104.9671 -0.3410 212.8056 107 132 85 1
105.4032 -0.3946 218.8461 107 132 85 1
105.0042 -0.4442 227.9107 107 132 85 1
105.2409 -0.4338 231.2746 107 132 85 1
104.5629 -0.3633 245.7135 107 132 85 1
104.7023 -0.2870 252.4002 107 132 85 1
104.8432 -0.2499 255.3722 107 132 85 1
108.0383 -0.1246 0.1090 107 132 85 1
108.0062 -0.1328 3.1024 107 132 85 1
108.4097 -0.1339 6.3928 107 132 85 1
108.4061 -0.1618 11.5786 107 132 85 1
108.2338 -0.2259 20.8050 107 132 85 1
107.5985 -0.2557 23.5634 107 132 85 1
107.8617 -0.2881 32.7455 107 132 85 1
107.6536 -0.2921 38.6461 107 132 85 1
108.3083 -0.2700 41.9513 107 132 85 1
108.1313 -0.2378 47.5802 107 132 85 1
108.4116 -0.2055 50.5516 107 132 85 1
108.2306 -0.1679 54.1736 174 174 166 3
107.5526 -0.1456 56.6915 47 50 54 2
108.3759 -0.0902 59.7939 47 50 54 2
107.5291 -0.0571 62.6943 47 50 54 2
108.1718 0.0055 66.3010 107 132 85 1
107.8498 0.0503 69.3460 107 132 85 1
108.2330 0.2060 81.1410 174 174 166 3
108.3383 0.2342 84.4003 174 174 166 3
107.5909 0.2675 87.4657 47 50 54 2
107.9298 0.2762 90.2233 47 50 54 2
108.2798 0.2761 92.6114 47 50 54 2
108.3036 0.2786 95.7235 47 50 54 2
107.7868 0.2902 99.4263 47 50 54 2
107.6269 0.2879 102.3604 174 174 166 3
107.6550 0.2769 104.9436 174 174 166 3
108.0312 0.2313 110.7292 174 174 166 3
107.9544 0.2163 113.5461 47 50 54 2
108.3259 0.1779 117.2689 47 50 54 2
107.5269 0.1897 120.3389 47 50 54 2
107.6117 0.1702 123.2397 174 174 166 3
107.8063 0.1515 125.6732 47 50 54 2
108.4403 0.1176 129.1852 47 50 54 2
108.1772 0.1208 131.7670 47 50 54 2
108.4005 0.1116 134.6055 174 174 166 3
107.8640 0.1278 138.2659 47 50 54 2
107.6658 0.1362 140.9529 47 50 54 2
107.6788 0.1424 143.8838 47 50 54 2
107.5550 0.1537 146.9213 174 174 166 3
108.4354 0.1616 152.7444 174 174 166 3
107.5519 0.1847 155.8362 47 50 54 2
108.4089 0.1862 159.4421 47 50 54 2
108.3589 0.1929 162.2131 47 50 54 2
107.5965 0.2020 164.9362 47 50 54 2
107.8303 0.1988 167.7206 47 50 54 2
107.7779 0.1932 170.5773 47 50 54 2
107.5729 0.1803 174.0350 174 174 166 3
107.7641 0.1597 177.1973 107 132 85 1
107.7978 0.1354 180.1570 107 132 85 1
108.4372 0.1088 182.6383 107 132 85 1
108.2201 0.0274 189.4343 107 132 85 1
107.7478 -0.0136 192.3585 174 174 166 3
107.8461 -0.0540 195.0987 47 50 54 2
107.9642 -0.0959 197.9133 47 50 54 2
107.7788 -0.1380 200.6653 47 50 54 2
108.0266 -0.2622 210.2657 107 132 85 1
108.2802 -0.2875 213.2740 107 132 85 1
108.3608 -0.3254 219.3338 107 132 85 1
108.2146 -0.3390 227.8955 107 132 85 1
108.3340 -0.2897 237.0019 107 132 85 1
107.5964 -0.2921 240.3990 107 132 85 1
108.3867 -0.2109 245.8614 107 132 85 1
107.7670 -0.2078 248.7598 107 132 85 1
108.1624 -0.1648 251.7635 107 132 85 1
111.0270 -0.0360 0.4036 107 132 85 1
110.8469 -0.0842 9.0360 107 132 85 1
111.1673 -0.0948 11.7049 107 132 85 1
110.9833 -0.1451 17.8163 107 132 85 1
111.0668 -0.2022 26.6152 107 132 85 1
110.6077 -0.2255 29.6090 107 132 85 1
111.1721 -0.2238 33.0085 107 132 85 1
110.9744 -0.2284 38.6392 107 132 85 1
111.4210 -0.2087 42.1633 107 132 85 1
111.2763 -0.1975 44.9391 107 132 85 1
110.8387 -0.1280 53.8613 174 174 166 3
111.1094 -0.0894 56.8147 47 50 54 2
110.9305 -0.0476 60.3936 47 50 54 2
111.1595 -0.0148 62.7202 174 174 166 3
110.8083 0.0251 66.0889 107 132 85 1
111.4413 0.0638 68.8595 107 132 85 1
111.0479 0.1767 80.6924 107 132 85 1
111.0582 0.2052 87.1996 174 174 166 3
111.3223 0.2029 90.3600 174 174 166 3
110.7226 0.2156 93.1194 47 50 54 2
110.6363 0.2123 95.9972 47 50 54 2
110.7945 0.1958 99.2093 47 50 54 2
111.1120 0.1734 101.5313 47 50 54 2
110.9206 0.1591 105.0198 47 50 54 2
111.2384 0.1257 108.2137 174 174 166 3
110.8509 0.1180 111.4695 174 174 166 3
111.1577 0.0866 114.4047 47 50 54 2
110.7071 0.0852 117.4525 47 50 54 2
111.3253 0.0483 120.0213 47 50 54 2
110.7175 0.0592 122.6565 174 174 166 3
111.2367 0.0306 126.1092 47 50 54 2
110.6284 0.0461 129.2462 47 50 54 2
110.5288 0.0486 132.0145 174 174 166 3
111.1270 0.0345 134.6080 47 50 54 2
111.2481 0.0429 138.4457 47 50 54 2
110.9963 0.0591 140.8964 47 50 54 2
110.6329 0.0842 144.4624 174 174 166 3
111.0565 0.0889 146.7746 174 174 166 3
111.0056 0.1104 150.2739 47 50 54 2
111.4295 0.1191 152.8150 47 50 54 2
110.6885 0.1443 155.5466 47 50 54 2
110.5989 0.1595 158.6823 47 50 54 2
111.1907 0.1641 161.9042 47 50 54 2
110.9127 0.1735 165.2774 47 50 54 2
110.9643 0.1737 167.7690 174 174 166 3
110.7898 0.1693 171.4417 107 132 85 1
110.6456 0.1619 173.7970 107 132 85 1
111.1587 0.1428 176.7444 107 132 85 1
110.5781 0.1194 180.4447 107 132 85 1
111.3322 0.0907 183.1647 107 132 85 1
110.9044 0.0619 186.1219 107 132 85 1
111.0535 -0.0063 191.8409 174 174 166 3
111.2315 -0.0399 194.5268 47 50 54 2
110.5978 -0.0816 197.6626 47 50 54 2
110.7703 -0.1184 200.6694 47 50 54 2
111.3250 -0.1497 203.8393 174 174 166 3
111.1063 -0.2511 219.0803 107 132 85 1
111.0861 -0.2528 222.2856 107 132 85 1
111.2053 -0.2435 225.2821 107 132 85 1
110.8110 -0.2139 233.9216 107 132 85 1
110.5993 -0.1983 237.1050 107 132 85 1
110.7463 -0.1687 239.9313 107 132 85 1
111.2586 -0.1203 243.0843 107 132 85 1
111.0128 -0.0811 248.8949 107 132 85 1
111.4019 -0.0273 254.6765 107 132 85 1
114.0363 0.0512 0.0493 107 132 85 1
114.2872 0.0458 2.5583 107 132 85 1
114.0772 -0.0047 9.2351 107 132 85 1
114.0024 -0.0301 12.1770 107 132 85 1
113.5226 -0.0929 18.4283 107 132 85 1
113.6104 -0.1138 21.3907 107 132 85 1
114.4508 -0.1289 26.6013 107 132 85 1
114.4225 -0.1537 33.1262 107 132 85 1
114.3621 -0.1576 35.7603 107 132 85 1
114.3109 -0.1111 48.4216 107 132 85 1
114.0198 -0.0936 51.3628 174 174 166 3
114.2368 -0.0700 53.5350 47 50 54 2
114.4162 -0.0378 56.5751 47 50 54 2
113.7640 -0.0148 59.8330 47 50 54 2
113.8450 0.0157 62.6550 174 174 166 3
113.6424 0.0737 68.7022 107 132 85 1
114.3075 0.1044 72.3263 107 132 85 1
114.2332 0.1189 74.6288 107 132 85 1
113.6555 0.1511 81.3857 107 132 85 1
114.4756 0.1169 92.6161 174 174 166 3
114.2758 0.1025 96.0872 174 174 166 3
113.9001 0.0951 98.9910 47 50 54 2
114.4309 0.0551 101.8945 47 50 54 2
113.8194 0.0536 104.8913 47 50 54 2
114.3654 0.0115 107.6708 47 50 54 2
114.2256 -0.0051 110.5674 47 50 54 2
113.8642 -0.0153 114.1124 174 174 166 3
114.3910 -0.0488 116.5208 47 50 54 2
113.8373 -0.0440 120.0471 47 50 54 2
113.9535 -0.0555 122.5617 47 50 54 2
114.1997 -0.0678 125.5335 47 50 54 2
113.9405 -0.0575 129.2902 47 50 54 2
113.6593 -0.0432 132.0116 47 50 54 2
113.5475 -0.0298 134.9559 47 50 54 2
113.7349 -0.0169 138.4723 47 50 54 2
114.3236 -0.0112 141.3939 174 174 166 3
113.8692 0.0205 144.4725 174 174 166 3
113.6394 0.0468 147.4049 47 50 54 2
114.1499 0.0565 149.8292 47 50 54 2
113.8013 0.0876 153.3200 47 50 54 2
113.6301 0.1101 156.4051 47 50 54 2
113.7171 0.1237 159.1092 47 50 54 2
114.3173 0.1292 162.1421 174 174 166 3
113.9326 0.1421 170.7981 107 132 85 1
113.8420 0.1346 173.9136 107 132 85 1
113.8409 0.1209 176.9083 107 132 85 1
113.7396 0.0558 185.5594 107 132 85 1
114.2340 -0.0137 192.4190 174 174 166 3
114.3480 -0.0415 195.2210 47 50 54 2
113.8742 -0.0662 197.5640 47 50 54 2
113.5373 -0.1049 201.4181 47 50 54 2
114.0630 -0.1235 204.3711 174 174 166 3
113.9055 -0.1591 210.1535 107 132 85 1
114.4212 -0.1589 216.3015 107 132 85 1
113.8930 -0.1626 222.3939 107 132 85 1
113.8526 -0.1349 228.1404 107 132 85 1
114.3444 -0.0710 234.0838 107 132 85 1
114.3926 -0.0424 237.2220 107 132 85 1
113.9471 -0.0343 240.3182 107 132 85 1
114.2482 0.0427 249.0893 107 132 85 1
113.7297 0.0535 255.4580 107 132 85 1
117.0289 0.1327 0.0000 107 132 85 1
116.5512 0.1022 3.0784 107 132 85 1
116.5818 0.0810 6.1829 107 132 85 1
117.3057 0.0768 8.8873 107 132 85 1
117.3274 0.0501 12.0280 107 132 85 1
117.0130 0.0185 14.7697 107 132 85 1
116.5642 -0.0471 21.4375 107 132 85 1
117.2091 -0.0475 23.6360 107 132 85 1
116.9989 -0.0735 27.2549 107 132 85 1
116.7480 -0.0896 29.5770 107 132 85 1
117.0740 -0.0839 41.7569 107 132 85 1
116.9771 -0.0562 47.9936 107 132 85 1
117.2208 -0.0306 51.0919 174 174 166 3
116.9770 -0.0132 54.1455 47 50 54 2
117.3204 0.0138 56.8948 47 50 54 2
116.8770 0.0341 60.4684 47 50 54 2
116.5221 0.0453 62.5275 174 174 166 3
117.0628 0.0743 66.0771 107 132 85 1
116.5525 0.0883 69.0332 107 132 85 1
116.7041 0.1135 78.3251 107 132 85 1
116.6921 0.1112 81.0850 107 132 85 1
117.4499 0.0920 83.5273 107 132 85 1
117.3946 0.0780 86.5613 107 132 85 1
116.5715 0.0576 92.7283 107 132 85 1
116.7447 0.0013 98.8001 174 174 166 3
116.7036 -0.0267 102.0279 47 50 54 2
116.9920 -0.0658 105.2109 47 50 54 2
116.7445 -0.0822 108.2286 47 50 54 2
117.4164 -0.1293 111.1746 47 50 54 2
117.3966 -0.1462 114.0105 47 50 54 2
116.7535 -0.1375 117.0355 47 50 54 2
116.7668 -0.1462 119.5224 47 50 54 2
117.2628 -0.1676 123.2355 47 50 54 2
117.1826 -0.1631 125.5883 47 50 54 2
116.5974 -0.1373 128.9913 47 50 54 2
116.5802 -0.1245 132.0048 47 50 54 2
117.2568 -0.1227 135.2222 47 50 54 2
116.6424 -0.0883 137.9399 47 50 54 2
117.4537 -0.0782 141.2600 47 50 54 2
116.9169 -0.0431 143.9384 47 50 54 2
116.6269 -0.0069 147.3281 47 50 54 2
116.8104 0.0175 150.4182 47 50 54 2
117.3776 0.0311 153.0805 47 50 54 2
116.8321 0.0605 155.8044 174 174 166 3
116.5415 0.0843 158.8244 174 174 166 3
117.2996 0.0989 164.6356 107 132 85 1
116.5771 0.1065 173.9587 107 132 85 1
117.4541 0.0335 185.9133 107 132 85 1
117.1397 -0.0325 195.0018 174 174 166 3
117.0966 -0.0543 198.2872 47 50 54 2
116.8585 -0.0694 200.5586 47 50 54 2
116.9041 -0.0851 203.9631 174 174 166 3
116.6329 -0.1045 210.1144 107 132 85 1
117.4400 -0.0777 215.5257 107 132 85 1
116.8472 -0.0794 219.4044 107 132 85 1
117.3776 -0.0481 221.8212 107 132 85 1
117.4768 -0.0204 225.1968 107 132 85 1
116.6753 0.0001 231.3749 107 132 85 1
117.4193 0.1027 239.7760 107 132 85 1
117.4610 0.1271 242.8717 107 132 85 1
117.1754 0.1376 246.4320 107 132 85 1
116.7966 0.1342 248.6494 107 132 85 1
117.2541 0.1638 254.9092 107 132 85 1
120.1876 0.2111 0.3754 107 132 85 1
120.4574 0.1976 3.3129 107 132 85 1
120.0028 0.1398 9.0292 107 132 85 1
120.1354 0.0219 23.8185 107 132 85 1
119.7055 -0.0179 29.9216 107 132 85 1
120.0040 -0.0010 44.8420 107 132 85 1
120.3513 0.0196 47.7432 107 132 85 1
120.2563 0.0334 51.0717 174 174 166 3
119.9819 0.0413 53.6683 47 50 54 2
120.2162 0.0612 56.7514 47 50 54 2
119.6900 0.0693 60.1038 47 50 54 2
120.2876 0.0879 63.1879 107 132 85 1
119.9003 0.0913 65.5684 107 132 85 1
120.0321 0.0972 69.3651 107 132 85 1
119.7477 0.0913 75.3467 107 132 85 1
119.8297 0.0465 83.7937 107 132 85 1
119.8468 0.0218 86.7565 107 132 85 1
120.4269 -0.0555 92.8563 107 132 85 1
119.7812 -0.1034 99.0140 107 132 85 1
119.9622 -0.1432 102.1674 174 174 166 3
119.8205 -0.1647 104.8159 174 174 166 3
120.4363 -0.2145 107.9267 47 50 54 2
119.6428 -0.2099 111.1134 47 50 54 2
120.0121 -0.2412 114.3946 47 50 54 2
119.7115 -0.2417 117.4061 47 50 54 2
120.3320 -0.2660 119.8113 47 50 54 2
119.6887 -0.2450 122.5747 47 50 54 2
120.4575 -0.2585 126.2738 47 50 54 2
119.6476 -0.2248 128.7001 47 50 54 2
119.5470 -0.2051 131.5950 47 50 54 2
120.2521 -0.1976 134.8224 47 50 54 2
120.0146 -0.1678 137.5241 47 50 54 2
119.8139 -0.1280 141.1326 47 50 54 2
119.8543 -0.1007 143.8586 47 50 54 2
119.7594 -0.0623 147.3977 47 50 54 2
119.5818 -0.0366 149.6493 47 50 54 2
120.0551 -0.0090 153.4746 174 174 166 3
119.5434 0.0554 161.6436 107 132 85 1
119.7293 0.0728 171.1360 107 132 85 1
120.1431 0.0639 174.0134 107 132 85 1
119.7385 0.0610 177.0488 107 132 85 1
119.6069 0.0385 182.6715 107 132 85 1
120.3977 -0.0124 192.3644 107 132 85 1
119.5425 -0.0272 195.4531 174 174 166 3
120.1398 -0.0321 197.8006 47 50 54 2
119.7944 -0.0423 201.0762 47 50 54 2
120.4500 -0.0354 203.7092 174 174 166 3
119.7591 0.0100 218.7553 107 132 85 1
120.4033 0.0562 221.7213 107 132 85 1
119.9742 0.1590 234.2267 107 132 85 1
120.2921 0.2392 243.4133 107 132 85 1
119.7910 0.2430 252.4420 107 132 85 1
120.2823 0.2531 255.1007 107 132 85 1
123.2501 0.2860 0.1111 174 174 166 3
123.2901 0.2635 3.3997 174 174 166 3
123.1859 0.2427 5.6925 174 174 166 3
123.0488 0.2147 8.6000 174 174 166 3
123.3966 0.1942 11.8677 174 174 166 3
123.4720 0.1696 14.9520 174 174 166 3
123.1911 0.1381 18.0325 174 174 166 3
123.3949 0.1213 21.0862 174 174 166 3
122.8815 0.0889 24.2553 174 174 166 3
123.1328 0.0813 27.2485 174 174 166 3
123.1193 0.0716 30.0007 174 174 166 3
123.4446 0.0750 32.5498 174 174 166 3
122.6343 0.0502 36.4227 174 174 166 3
122.6528 0.0520 38.5813 174 174 166 3
123.0595 0.0690 42.3881 174 174 166 3
122.9208 0.0731 45.4365 174 174 166 3
123.2805 0.0894 48.1002 174 174 166 3
123.1813 0.0954 50.9371 174 174 166 3
122.7599 0.0961 54.1618 47 50 54 2
123.4619 0.1140 56.8117 47 50 54 2
122.9737 0.1105 59.5786 47 50 54 2
123.1049 0.1129 62.7260 174 174 166 3
123.2368 0.1093 65.9193 174 174 166 3
122.7347 0.1008 68.6096 174 174 166 3
123.3004 0.0849 71.9451 174 174 166 3
123.3348 0.0648 74.8874 174 174 166 3
123.2644 0.0387 78.0653 174 174 166 3
122.8469 0.0143 81.2099 174 174 166 3
123.0405 -0.0202 84.0182 174 174 166 3
122.8979 -0.0480 86.6064 174 174 166 3
123.0369 -0.0950 90.0098 174 174 166 3
122.8429 -0.1268 92.8551 174 174 166 3
122.5568 -0.1643 96.4313 174 174 166 3
122.6416 -0.1939 98.5830 174 174 166 3
122.5962 -0.2328 102.0197 174 174 166 3
123.2169 -0.2898 105.4716 174 174 166 3
123.0580 -0.3032 107.5832 174 174 166 3
122.5981 -0.3101 110.6756 47 50 54 2
123.0721 -0.3421 113.8866 47 50 54 2
123.0049 -0.3476 116.6587 47 50 54 2
123.0334 -0.3498 119.8998 47 50 54 2
122.8917 -0.3407 122.6030 47 50 54 2
123.2554 -0.3379 125.7463 47 50 54 2
122.7428 -0.3046 128.9905 47 50 54 2
122.8793 -0.2877 131.5795 47 50 54 2
123.2616 -0.2610 135.3384 47 50 54 2
122.6048 -0.2137 138.4713 47 50 54 2
122.6777 -0.1886 140.8810 47 50 54 2
122.5310 -0.1476 144.2564 47 50 54 2
123.3110 -0.1307 147.0705 174 174 166 3
122.9545 -0.0893 150.3294 174 174 166 3
123.2562 -0.0674 153.1165 174 174 166 3
122.9257 -0.0378 155.8426 174 174 166 3
122.9866 -0.0150 159.0970 174 174 166 3
122.8992 0.0047 162.2874 174 174 166 3
122.5274 0.0218 164.9204 174 174 166 3
123.2313 0.0184 167.8660 174 174 166 3
122.5777 0.0321 170.6655 174 174 166 3
122.9391 0.0265 173.9421 174 174 166 3
123.1381 0.0208 176.8065 174 174 166 3
123.4276 0.0116 180.1504 174 174 166 3
122.6094 0.0120 183.1931 174 174 166 3
123.1036 0.0012 186.0785 174 174 166 3
122.6209 -0.0042 189.1976 174 174 166 3
122.7562 -0.0098 192.0257 174 174 166 3
123.2044 -0.0108 195.3220 174 174 166 3
122.5332 -0.0142 198.3312 47 50 54 2
122.6487 -0.0097 200.8752 47 50 54 2
122.7574 -0.0005 203.6578 47 50 54 2
122.5662 0.0106 207.0088 174 174 166 3
122.5836 0.0312 210.4241 174 174 166 3
123.4005 0.0750 213.2446 174 174 166 3
122.7556 0.0773 215.5636 174 174 166 3
123.2346 0.1264 218.9618 174 174 166 3
122.8467 0.1502 222.4183 174 174 166 3
123.2955 0.1925 224.7572 174 174 166 3
123.4196 0.2323 227.9159 174 174 166 3
123.3131 0.2591 230.8455 174 174 166 3
123.1341 0.2788 233.5998 174 174 166 3
123.0464 0.3040 237.0053 174 174 166 3
123.3615 0.3360 240.0272 174 174 166 3
122.7997 0.3305 243.2193 174 174 166 3
123.1971 0.3517 246.0452 174 174 166 3
122.7520 0.3385 248.8718 174 174 166 3
122.8824 0.3374 251.9258 174 174 166 3
123.0070 0.3265 255.3228 174 174 166 3
126.0376 0.3495 0.0000 47 50 54 2
126.2808 0.3334 3.0295 47 50 54 2
125.8449 0.2986 6.2316 47 50 54 2
126.3246 0.2837 9.3472 47 50 54 2
126.0576 0.2524 12.3959 47 50 54 2
125.8524 0.2279 14.8509 47 50 54 2
126.3572 0.2153 18.2962 47 50 54 2
125.6192 0.1805 20.7486 47 50 54 2
125.8684 0.1678 24.2814 47 50 54 2
125.9302 0.1593 26.6991 47 50 54 2
126.0750 0.1533 30.0129 47 50 54 2
126.2344 0.1522 33.2218 47 50 54 2
125.6311 0.1331 36.3204 47 50 54 2
126.1361 0.1479 39.4332 47 50 54 2
125.6552 0.1373 42.2316 47 50 54 2
125.7820 0.1439 44.9321 47 50 54 2
125.8522 0.1491 47.8400 47 50 54 2
126.3148 0.1614 50.7200 47 50 54 2
125.8148 0.1519 53.9079 47 50 54 2
125.9498 0.1518 56.9374 47 50 54 2
126.2844 0.1497 59.7583 47 50 54 2
126.2592 0.1387 62.5329 47 50 54 2
125.7381 0.1183 65.9221 47 50 54 2
125.5256 0.0993 68.7951 47 50 54 2
125.7696 0.0707 72.1025 47 50 54 2
126.1071 0.0374 74.9804 47 50 54 2
126.0220 0.0011 78.0171 47 50 54 2
125.7886 -0.0415 81.4447 47 50 54 2
126.2123 -0.0939 84.4190 47 50 54 2
126.0092 -0.1296 87.0376 47 50 54 2
125.8295 -0.1723 90.0941 47 50 54 2
125.5219 -0.2017 92.5897 47 50 54 2
125.9735 -0.2643 95.9027 47 50 54 2
125.5580 -0.2920 98.8422 47 50 54 2
126.3051 -0.3577 102.2037 47 50 54 2
126.3658 -0.3870 104.7581 47 50 54 2
126.0914 -0.4039 107.6725 47 50 54 2
125.9727 -0.4219 111.0459 47 50 54 2
126.0188 -0.4337 113.6633 47 50 54 2
125.8980 -0.4352 117.0713 47 50 54 2
126.1374 -0.4380 120.1697 47 50 54 2
125.6086 -0.4116 123.4710 47 50 54 2
125.6816 -0.3985 126.0458 47 50 54 2
126.2779 -0.3884 129.1695 47 50 54 2
125.6174 -0.3442 132.2627 47 50 54 2
126.3673 -0.3350 134.6479 47 50 54 2
126.0378 -0.2940 137.6281 47 50 54 2
125.5493 -0.2396 141.3763 47 50 54 2
125.6431 -0.2143 143.6464 47 50 54 2
125.6048 -0.1782 146.6596 47 50 54 2
125.6608 -0.1400 150.2307 47 50 54 2
125.7938 -0.1185 152.6174 47 50 54 2
125.7023 -0.0904 155.5414 47 50 54 2
125.8629 -0.0660 159.1621 47 50 54 2
125.8700 -0.0514 161.5631 47 50 54 2
126.4266 -0.0465 164.6627 47 50 54 2
126.0397 -0.0281 168.0065 47 50 54 2
126.0619 -0.0226 170.6777 47 50 54 2
125.6154 -0.0117 174.1572 47 50 54 2
126.3699 -0.0206 177.3167 47 50 54 2
125.9317 -0.0149 179.6383 47 50 54 2
126.3600 -0.0183 182.8963 47 50 54 2
126.4410 -0.0163 186.1786 47 50 54 2
125.5746 -0.0104 189.1973 47 50 54 2
126.4623 -0.0052 191.8855 47 50 54 2
126.2991 0.0053 195.0614 47 50 54 2
126.0418 0.0149 197.6183 47 50 54 2
125.6262 0.0262 200.5639 47 50 54 2
126.0846 0.0589 204.1953 47 50 54 2
126.0874 0.0830 206.9047 47 50 54 2
125.8310 0.1126 210.4312 47 50 54 2
125.6413 0.1348 212.9210 47 50 54 2
126.1879 0.1873 215.9436 47 50 54 2
125.8112 0.2115 218.8380 47 50 54 2
126.4200 0.2789 222.4370 47 50 54 2
126.0981 0.2996 225.0014 47 50 54 2
125.8690 0.3275 228.0724 47 50 54 2
126.3015 0.3783 231.2801 47 50 54 2
126.2991 0.4026 233.9077 47 50 54 2
125.7737 0.4052 236.7776 47 50 54 2
125.5587 0.4171 240.2754 47 50 54 2
125.8147 0.4350 243.1829 47 50 54 2
126.3889 0.4552 245.7665 47 50 54 2
125.5272 0.4225 249.3626 47 50 54 2
126.3171 0.4339 251.7675 47 50 54 2
125.6309 0.3942 255.0810 47 50 54 2
129.2449 0.4142 0.4714 47 50 54 2
129.2776 0.3988 2.8628 47 50 54 2
129.1649 0.3701 6.4748 47 50 54 2
129.0141 0.3495 8.7574 47 50 54 2
128.6073 0.3137 12.2723 47 50 54 2
128.5765 0.2946 14.8348 47 50 54 2
129.4476 0.2985 17.6674 47 50 54 2
128.8891 0.2673 20.6456 47 50 54 2
128.7552 0.2473 24.2135 47 50 54 2
128.7279 0.2375 26.7841 47 50 54 2
129.1595 0.2408 30.3974 47 50 54 2
128.7243 0.2243 32.7907 47 50 54 2
128.9443 0.2278 35.5796 47 50 54 2
128.8760 0.2240 39.1902 47 50 54 2
128.9267 0.2245 41.7807 47 50 54 2
129.1406 0.2281 45.0901 47 50 54 2
129.2012 0.2260 48.0492 47 50 54 2
128.8992 0.2150 50.5559 47 50 54 2
128.7208 0.2015 54.2498 47 50 54 2
128.9788 0.1948 56.7583 47 50 54 2
129.4512 0.1773 60.3416 47 50 54 2
128.7439 0.1551 62.5223 47 50 54 2
128.6010 0.1187 66.4498 47 50 54 2
129.1593 0.0916 68.7659 47 50 54 2
128.5961 0.0519 72.0536 47 50 54 2
128.9843 0.0046 75.0458 47 50 54 2
129.2959 -0.0520 78.2380 47 50 54 2
129.3158 -0.0980 80.8390 47 50 54 2
129.0448 -0.1411 83.5425 47 50 54 2
129.0513 -0.1970 86.6162 47 50 54 2
128.8271 -0.2569 90.2918 47 50 54 2
129.3455 -0.3192 93.0779 47 50 54 2
128.9752 -0.3609 96.3229 47 50 54 2
128.9417 -0.3990 99.0132 47 50 54 2
128.9038 -0.4317 101.6367 47 50 54 2
129.1192 -0.4702 104.5881 47 50 54 2
129.0996 -0.4945 107.5345 47 50 54 2
128.7387 -0.5036 110.9158 47 50 54 2
129.1782 -0.5248 114.1606 47 50 54 2
128.6178 -0.5103 116.8582 47 50 54 2
128.8476 -0.5089 120.0200 47 50 54 2
128.9632 -0.4970 123.0299 47 50 54 2
129.3748 -0.4858 125.9383 47 50 54 2
129.3238 -0.4586 128.8512 47 50 54 2
128.8821 -0.4198 131.7271 47 50 54 2
128.8235 -0.3822 134.9315 47 50 54 2
128.9729 -0.3496 137.8750 47 50 54 2
129.2167 -0.3154 141.0236 47 50 54 2
128.6910 -0.2640 144.4015 47 50 54 2
129.4722 -0.2489 146.9784 47 50 54 2
129.3023 -0.2148 149.7753 47 50 54 2
129.4702 -0.1836 153.2426 47 50 54 2
128.7191 -0.1467 155.7279 47 50 54 2
128.9744 -0.1290 158.6838 47 50 54 2
129.1634 -0.1126 161.8094 47 50 54 2
129.4632 -0.1037 164.5742 47 50 54 2
128.5450 -0.0716 168.1980 47 50 54 2
129.2734 -0.0748 171.1568 47 50 54 2
128.9789 -0.0628 173.7542 47 50 54 2
128.7076 -0.0523 176.5524 47 50 54 2
128.5445 -0.0431 179.8939 47 50 54 2
129.3988 -0.0423 182.9870 47 50 54 2
129.3436 -0.0306 185.8992 47 50 54 2
129.1843 -0.0174 188.6280 47 50 54 2
128.7720 -0.0009 191.7118 47 50 54 2
128.9405 0.0218 194.9827 47 50 54 2
128.7559 0.0473 198.2861 47 50 54 2
129.1972 0.0770 200.7231 47 50 54 2
128.8229 0.1040 203.7057 47 50 54 2
128.6255 0.1444 207.3579 47 50 54 2
129.2536 0.1964 210.0526 47 50 54 2
128.8761 0.2248 212.7439 47 50 54 2
128.5566 0.2638 216.0903 47 50 54 2
129.0090 0.3209 218.9850 47 50 54 2
128.8393 0.3532 221.6203 47 50 54 2
129.0264 0.4058 224.9770 47 50 54 2
129.4191 0.4521 227.5462 47 50 54 2
128.5509 0.4557 230.7093 47 50 54 2
129.1806 0.5092 234.2176 47 50 54 2
129.1789 0.5284 237.3164 47 50 54 2
128.5302 0.5186 240.4177 47 50 54 2
129.3431 0.5472 242.6455 47 50 54 2
128.7748 0.5248 246.4488 47 50 54 2
128.7567 0.5111 249.4756 47 50 54 2
128.7056 0.4910 252.2175 47 50 54 2
129.2025 0.4735 255.2934 47 50 54 2
132.0039 0.4720 0.0000 174 174 166 3
132.0196 0.4555 2.8025 174 174 166 3
132.3969 0.4419 6.1810 174 174 166 3
132.0804 0.4143 9.3962 174 174 166 3
132.3026 0.4031 12.0536 174 174 166 3
131.6300 0.3690 15.0868 47 50 54 2
131.6088 0.3524 18.1411 47 50 54 2
132.3338 0.3607 20.6670 174 174 166 3
131.6016 0.3290 23.7653 47 50 54 2
132.1480 0.3359 26.8182 174 174 166 3
132.4166 0.3364 30.2733 174 174 166 3
132.1187 0.3230 33.1248 174 174 166 3
132.2621 0.3222 36.4416 174 174 166 3
132.2428 0.3175 39.0922 174 174 166 3
132.3536 0.3136 42.4642 174 174 166 3
131.6099 0.2893 44.7497 47 50 54 2
131.7481 0.2809 48.3286 47 50 54 2
131.7636 0.2692 50.9510 47 50 54 2
131.6505 0.2508 53.7386 47 50 54 2
132.4506 0.2351 57.0028 47 50 54 2
131.9698 0.1997 60.0384 47 50 54 2
132.2009 0.1679 62.7991 174 174 166 3
131.8393 0.1302 65.5255 47 50 54 2
132.2672 0.0701 69.2813 174 174 166 3
132.1213 0.0194 72.2101 174 174 166 3
132.4766 -0.0423 75.2171 174 174 166 3
131.6267 -0.0761 77.5497 47 50 54 2
131.9059 -0.1508 81.0139 47 50 54 2
131.6808 -0.2070 83.9848 47 50 54 2
131.7250 -0.2736 87.2303 47 50 54 2
131.6486 -0.3222 89.8110 47 50 54 2
131.6798 -0.3868 93.2653 47 50 54 2
131.5215 -0.4321 96.2233 47 50 54 2
131.8447 -0.4779 98.6734 47 50 54 2
131.7856 -0.5169 101.8150 47 50 54 2
131.9637 -0.5565 105.2341 47 50 54 2
131.7034 -0.5672 107.5735 47 50 54 2
131.9971 -0.5924 111.3799 47 50 54 2
132.1286 -0.5997 114.4048 47 50 54 2
132.3549 -0.6007 117.3275 47 50 54 2
132.0900 -0.5852 119.8775 47 50 54 2
132.0641 -0.5682 122.7035 47 50 54 2
132.2512 -0.5426 126.3707 47 50 54 2
131.6427 -0.5046 129.0252 47 50 54 2
132.2460 -0.4870 131.7160 47 50 54 2
131.8420 -0.4444 134.6874 47 50 54 2
132.2161 -0.4130 137.8292 47 50 54 2
131.7665 -0.3600 141.4170 47 50 54 2
132.1115 -0.3389 143.7130 174 174 166 3
132.3735 -0.3032 147.2700 174 174 166 3
131.9752 -0.2654 150.0553 47 50 54 2
132.0137 -0.2353 153.2370 174 174 166 3
131.6115 -0.2041 155.8640 47 50 54 2
132.1009 -0.1903 158.9893 174 174 166 3
131.9030 -0.1672 161.8521 47 50 54 2
132.0205 -0.1525 164.7999 174 174 166 3
131.6613 -0.1283 168.2453 47 50 54 2
132.0609 -0.1221 171.1480 174 174 166 3
131.9186 -0.1089 173.5617 47 50 54 2
132.4182 -0.0991 177.0766 174 174 166 3
132.2402 -0.0818 179.8833 174 174 166 3
132.0886 -0.0603 183.2117 174 174 166 3
132.2160 -0.0431 185.7434 174 174 166 3
131.8138 -0.0148 189.1516 47 50 54 2
132.0334 0.0143 192.1663 174 174 166 3
131.6567 0.0444 195.1674 47 50 54 2
132.0367 0.0769 197.5344 47 50 54 2
131.7611 0.1149 200.6260 47 50 54 2
131.7580 0.1611 203.7857 47 50 54 2
132.2376 0.2207 206.8702 174 174 166 3
132.3900 0.2773 209.9654 174 174 166 3
131.9875 0.3227 213.2408 47 50 54 2
132.2068 0.3774 216.0522 174 174 166 3
131.9394 0.4116 218.6104 47 50 54 2
131.7074 0.4499 221.5207 47 50 54 2
131.7309 0.4979 224.7985 47 50 54 2
132.2970 0.5547 227.7638 174 174 166 3
131.5354 0.5667 231.3943 47 50 54 2
131.8016 0.5937 233.6693 47 50 54 2
132.3278 0.6278 236.8803 174 174 166 3
132.0179 0.6259 240.0591 174 174 166 3
131.7220 0.6157 243.1453 47 50 54 2
132.1744 0.6181 245.8918 174 174 166 3
131.9244 0.5928 248.9550 47 50 54 2
132.4477 0.5724 252.4041 174 174 166 3
132.1185 0.5328 255.2301 174 174 166 3
134.6870 0.5225 0.0000 107 132 85 1
135.0535 0.4682 12.1896 107 132 85 1
134.9607 0.4410 18.2962 107 132 85 1
134.7206 0.4100 27.2720 107 132 85 1
134.8462 0.4084 30.0217 107 132 85 1
134.9394 0.4059 32.7570 107 132 85 1
134.7679 0.3859 39.1641 107 132 85 1
134.8861 0.3631 45.3868 107 132 85 1
134.5477 0.3417 47.7780 107 132 85 1
134.7742 0.3177 51.4613 174 174 166 3
134.6444 0.2926 53.8857 47 50 54 2
135.3284 0.2639 56.9730 47 50 54 2
134.8619 0.2169 60.0842 47 50 54 2
135.1138 0.1770 62.6501 174 174 166 3
134.7899 0.0647 68.7521 107 132 85 1
135.3986 -0.0754 74.9259 107 132 85 1
134.8944 -0.1320 77.7093 107 132 85 1
135.0662 -0.2180 81.2877 107 132 85 1
135.2311 -0.2854 84.0670 107 132 85 1
135.2590 -0.3592 87.3413 107 132 85 1
134.7447 -0.3963 89.6676 107 132 85 1
135.3828 -0.4700 92.6298 107 132 85 1
134.9783 -0.5240 96.2837 107 132 85 1
135.2063 -0.5679 98.8263 107 132 85 1
135.3428 -0.6090 101.8488 107 132 85 1
135.4548 -0.6421 105.0387 174 174 166 3
135.3436 -0.6570 107.6644 47 50 54 2
135.0812 -0.6630 110.7308 47 50 54 2
134.9586 -0.6632 114.0222 47 50 54 2
135.1572 -0.6603 117.2789 47 50 54 2
135.1381 -0.6487 119.7410 47 50 54 2
135.2953 -0.6313 122.8188 47 50 54 2
135.0792 -0.6045 125.5290 47 50 54 2
134.8671 -0.5660 129.0141 47 50 54 2
135.1890 -0.5377 132.0803 47 50 54 2
135.3294 -0.5029 135.2540 47 50 54 2
134.9036 -0.4630 137.9075 47 50 54 2
135.2474 -0.4361 140.6863 47 50 54 2
134.9986 -0.3947 143.8234 47 50 54 2
135.3498 -0.3655 147.1099 47 50 54 2
135.0390 -0.3290 150.0431 174 174 166 3
135.2621 -0.2565 159.0824 107 132 85 1
135.2130 -0.2327 162.2990 107 132 85 1
135.2871 -0.2175 164.8303 107 132 85 1
135.3324 -0.1973 168.1143 107 132 85 1
135.4051 -0.1071 180.4366 107 132 85 1
135.1974 -0.0798 183.1270 107 132 85 1
134.7336 -0.0180 188.6051 107 132 85 1
135.3052 0.0358 192.4434 107 132 85 1
135.3954 0.0818 195.3427 174 174 166 3
134.6930 0.1126 197.7168 47 50 54 2
134.8783 0.1756 201.1979 47 50 54 2
134.5907 0.2305 204.4797 174 174 166 3
134.9148 0.2868 207.0531 107 132 85 1
135.4767 0.4100 212.5738 107 132 85 1
135.2984 0.5177 218.6042 107 132 85 1
135.3616 0.6580 228.1528 107 132 85 1
135.1738 0.6793 230.9939 107 132 85 1
135.1176 0.6860 246.1061 107 132 85 1
137.8203 0.5452 9.0506 107 132 85 1
138.1250 0.5331 15.3603 107 132 85 1
138.2887 0.5311 18.0284 107 132 85 1
137.5377 0.4983 23.9971 107 132 85 1
138.3942 0.5168 27.3836 107 132 85 1
138.3905 0.5123 29.6251 107 132 85 1
138.3725 0.5027 33.2796 107 132 85 1
137.7585 0.4787 35.5325 107 132 85 1
137.6770 0.3971 48.2363 107 132 85 1
137.6882 0.3641 51.2483 174 174 166 3
137.7551 0.3239 54.3374 47 50 54 2
138.3927 0.2912 56.7575 47 50 54 2
138.3616 0.2405 59.5592 47 50 54 2
137.8220 0.1714 63.0031 174 174 166 3
137.9585 0.1099 65.8402 107 132 85 1
137.9565 0.0473 68.5450 107 132 85 1
138.4017 -0.0468 72.1895 107 132 85 1
138.4089 -0.1158 74.8714 107 132 85 1
137.6604 -0.1740 77.5818 107 132 85 1
138.2799 -0.6420 99.0961 174 174 166 3
138.4729 -0.6783 101.8170 174 174 166 3
138.2127 -0.6981 104.5819 47 50 54 2
137.9515 -0.7122 107.7421 47 50 54 2
137.6582 -0.7159 110.8327 47 50 54 2
137.9464 -0.7218 113.5344 47 50 54 2
138.3842 -0.7210 116.8699 47 50 54 2
137.5212 -0.6905 120.0057 47 50 54 2
137.5766 -0.6713 122.8532 47 50 54 2
137.9810 -0.6550 125.5333 47 50 54 2
138.0000 -0.6188 129.1957 47 50 54 2
138.0035 -0.5925 131.6214 47 50 54 2
138.3958 -0.5585 135.2314 47 50 54 2
137.8830 -0.5214 137.6553 47 50 54 2
137.8961 -0.4789 141.4195 47 50 54 2
138.3948 -0.4612 143.9510 47 50 54 2
138.3291 -0.4246 147.3874 47 50 54 2
138.3829 -0.3993 150.1435 47 50 54 2
138.0468 -0.3680 152.7987 47 50 54 2
138.2097 -0.3422 156.2878 174 174 166 3
137.8342 -0.2469 167.6686 107 132 85 1
138.3775 -0.2311 170.7567 107 132 85 1
137.9678 -0.1626 177.3120 107 132 85 1
138.4261 -0.0961 183.0345 107 132 85 1
138.0144 -0.0478 186.3040 107 132 85 1
137.8293 0.0926 194.5440 174 174 166 3
137.7827 0.1626 198.1106 47 50 54 2
138.3023 0.2421 201.4546 47 50 54 2
137.5838 0.2833 203.9948 174 174 166 3
138.0212 0.3527 206.7221 107 132 85 1
137.9379 0.4319 210.4268 107 132 85 1
137.9281 0.4814 212.7646 107 132 85 1
138.0704 0.5440 215.6371 107 132 85 1
138.0439 0.6012 218.6951 107 132 85 1
137.6762 0.6913 225.1442 107 132 85 1
