ply
format ascii 1.0
comment generated by citygen
element vertex 1204
property float x
property float y
property float z
property uchar red
property uchar green
property uchar blue
property int class
end_header
164.2860 20.5415 205.5905 176 164 148 4
163.8625 24.6662 205.5905 176 164 148 4
163.2856 30.4230 205.5905 176 164 148 4
164.1035 35.6777 205.5905 176 164 148 4
163.8089 40.7202 205.5905 176 164 148 4
169.1526 0.1317 205.5905 176 164 148 4
168.8633 5.6959 205.5905 176 164 148 4
169.2045 10.6230 205.5905 176 164 148 4
168.4334 14.9065 205.5905 176 164 148 4
168.6984 19.7509 205.5905 176 164 148 4
169.2378 25.2060 205.5905 176 164 148 4
168.7805 30.2501 205.5905 176 164 148 4
168.4478 34.6574 205.5905 176 164 148 4
168.2636 39.9539 205.5905 176 164 148 4
139.0578 0.7164 216.0973 176 164 148 4
139.0331 5.0801 216.0973 176 164 148 4
138.6970 9.9811 216.0973 176 164 148 4
138.6970 15.6066 216.0973 176 164 148 4
139.0105 19.6016 216.0973 176 164 148 4
138.6970 24.9023 216.0973 176 164 148 4
139.1647 30.0412 216.0973 176 164 148 4
139.1097 35.1396 216.0973 176 164 148 4
138.6970 40.5789 216.0973 176 164 148 4
143.4747 0.3644 216.0973 176 164 148 4
143.7235 5.2114 216.0973 176 164 148 4
144.2310 10.6602 216.0973 176 164 148 4
143.9836 14.8507 216.0973 176 164 148 4
143.2115 20.6069 216.0973 176 164 148 4
143.5916 25.6172 216.0973 176 164 148 4
144.0889 30.4371 216.0973 176 164 148 4
143.8783 35.3372 216.0973 176 164 148 4
144.1745 40.5480 216.0973 176 164 148 4
148.1754 0.4436 216.0973 176 164 148 4
148.2834 4.7322 216.0973 176 164 148 4
148.3737 10.0573 216.0973 176 164 148 4
149.0625 15.1756 216.0973 176 164 148 4
148.2740 20.1757 216.0973 176 164 148 4
149.1329 24.7357 216.0973 176 164 148 4
149.2196 30.5774 216.0973 176 164 148 4
148.8033 34.6474 216.0973 176 164 148 4
148.7684 39.6741 216.0973 176 164 148 4
153.8166 0.6036 216.0973 176 164 148 4
153.6181 5.1230 216.0973 176 164 148 4
153.7216 9.7213 216.0973 176 164 148 4
153.6310 14.8809 216.0973 176 164 148 4
153.5431 20.3102 216.0973 176 164 148 4
153.6202 24.6238 216.0973 176 164 148 4
154.0138 29.9832 216.0973 176 164 148 4
154.1007 34.7554 216.0973 176 164 148 4
153.3406 40.2697 216.0973 176 164 148 4
158.1301 0.1317 216.0973 176 164 148 4
158.5494 4.6272 216.0973 176 164 148 4
159.2758 9.5690 216.0973 176 164 148 4
158.8926 15.3790 216.0973 176 164 148 4
158.9803 20.0400 216.0973 176 164 148 4
158.1096 25.6114 216.0973 176 164 148 4
158.6871 30.0279 216.0973 176 164 148 4
159.0471 34.5591 216.0973 176 164 148 4
158.9269 40.7056 216.0973 176 164 148 4
164.2011 0.6563 216.0973 176 164 148 4
163.1361 5.1815 216.0973 176 164 148 4
163.1155 10.4312 216.0973 176 164 148 4
164.1125 14.7319 216.0973 176 164 148 4
163.5153 19.6855 216.0973 176 164 148 4
163.2783 25.6350 216.0973 176 164 148 4
164.1483 30.0879 216.0973 176 164 148 4
163.6760 35.1187 216.0973 176 164 148 4
163.2131 40.1666 216.0973 176 164 148 4
168.5444 0.1317 216.0973 176 164 148 4
168.4981 5.1379 216.0973 176 164 148 4
169.1714 9.7334 216.0973 176 164 148 4
169.2906 15.3167 216.0973 176 164 148 4
168.7914 20.2993 216.0973 176 164 148 4
168.7450 24.7283 216.0973 176 164 148 4
169.1372 30.4325 216.0973 176 164 148 4
168.8663 35.0984 216.0973 176 164 148 4
169.1814 40.5609 216.0973 176 164 148 4
152.9386 13.8805 269.3773 112 116 122 5
152.9386 13.8805 274.4377 112 116 122 5
153.1332 14.9908 279.4105 112 116 122 5
152.9386 13.8805 284.7531 112 116 122 5
152.9386 13.8805 288.8619 112 116 122 5
158.0793 13.8805 269.7910 112 116 122 5
157.3411 17.9448 274.3551 112 116 122 5
157.5371 19.5732 279.2263 112 116 122 5
158.5192 19.3754 284.9066 112 116 122 5
158.2500 15.9136 289.4907 112 116 122 5
162.4251 13.8805 269.4959 112 116 122 5
163.4658 19.5403 273.8075 112 116 122 5
162.7348 20.8710 278.9903 112 116 122 5
162.5924 20.5178 284.2565 112 116 122 5
163.3204 17.8919 289.7204 112 116 122 5
168.2704 13.8805 269.3773 112 116 122 5
168.3854 19.3463 274.8252 112 116 122 5
167.6390 20.5542 278.9965 112 116 122 5
168.3014 19.9912 284.4057 112 116 122 5
168.3559 17.7524 288.8750 112 116 122 5
172.6536 13.8805 269.9091 112 116 122 5
172.8852 16.1574 274.6568 112 116 122 5
173.0326 18.1191 279.8269 112 116 122 5
172.9415 17.5173 284.2511 112 116 122 5
172.6907 13.8805 289.4474 112 116 122 5
152.9386 0.2563 269.3917 176 164 148 4
152.9386 4.5594 269.4346 176 164 148 4
152.9386 10.1228 269.9667 176 164 148 4
152.9386 0.5949 274.3806 176 164 148 4
152.9386 5.4157 273.8643 176 164 148 4
152.9386 9.6565 274.4671 176 164 148 4
152.9386 0.6334 279.6678 176 164 148 4
152.9386 5.4519 279.0466 176 164 148 4
152.9386 10.4259 279.5040 176 164 148 4
152.9386 0.0730 284.8249 176 164 148 4
152.9386 4.9196 284.7387 176 164 148 4
152.9386 10.0208 284.2595 176 164 148 4
152.9386 0.0730 289.0539 176 164 148 4
152.9386 4.5463 289.6029 176 164 148 4
152.9386 10.3319 289.1697 176 164 148 4
175.2586 0.2744 269.8566 176 164 148 4
175.2586 5.0186 269.3773 176 164 148 4
175.2586 9.4754 269.3773 176 164 148 4
175.2586 0.4695 273.8034 176 164 148 4
175.2586 5.5021 274.4890 176 164 148 4
175.2586 10.1518 273.8358 176 164 148 4
175.2586 0.0945 278.9369 176 164 148 4
175.2586 5.2232 279.9031 176 164 148 4
175.2586 10.6727 279.5740 176 164 148 4
175.2586 0.3348 284.9288 176 164 148 4
175.2586 4.9001 284.2769 176 164 148 4
175.2586 9.4772 284.6181 176 164 148 4
175.2586 0.0730 288.8838 176 164 148 4
175.2586 5.5418 288.8619 176 164 148 4
175.2586 10.3122 289.3164 176 164 148 4
152.9386 0.0730 269.3773 176 164 148 4
153.0480 4.9521 269.3773 176 164 148 4
152.9386 10.5685 269.3773 176 164 148 4
157.4728 0.0730 269.3773 176 164 148 4
157.7180 4.6326 269.3773 176 164 148 4
158.2230 9.8365 269.3773 176 164 148 4
162.6200 0.0730 269.3773 176 164 148 4
163.1603 5.0710 269.3773 176 164 148 4
163.1339 10.1546 269.3773 176 164 148 4
168.0907 0.0730 269.3773 176 164 148 4
168.3288 4.9988 269.3773 176 164 148 4
168.1381 9.6369 269.3773 176 164 148 4
173.2478 0.0730 269.3773 176 164 148 4
172.7606 4.5779 269.3773 176 164 148 4
172.3960 9.9540 269.3773 176 164 148 4
153.3333 0.0730 291.6973 176 164 148 4
153.2764 5.2255 291.6973 176 164 148 4
152.9499 10.1204 291.6973 176 164 148 4
158.1287 0.4947 291.6973 176 164 148 4
157.5576 5.0082 291.6973 176 164 148 4
157.5007 9.7849 291.6973 176 164 148 4
163.0271 0.0730 291.6973 176 164 148 4
163.1222 5.3642 291.6973 176 164 148 4
162.8211 10.3557 291.6973 176 164 148 4
168.1795 0.0730 291.6973 176 164 148 4
168.0771 4.5450 291.6973 176 164 148 4
167.9937 10.0973 291.6973 176 164 148 4
173.0878 0.6602 291.6973 176 164 148 4
172.9748 5.4958 291.6973 176 164 148 4
172.7591 10.4236 291.6973 176 164 148 4
184.0568 6.8027 13.7253 112 116 122 5
184.1825 6.8224 17.9616 112 116 122 5
185.0494 6.9374 23.0551 112 116 122 5
190.0714 6.9980 12.8419 112 116 122 5
189.1886 7.0577 18.0663 112 116 122 5
190.1450 6.9916 23.7445 112 116 122 5
194.8060 5.9188 13.7902 112 116 122 5
195.0848 5.7734 18.8229 112 116 122 5
196.0372 -0.3377 17.0867 176 164 148 4
195.9061 -0.3377 18.2615 176 164 148 4
195.4612 0.1678 19.7282 176 164 148 4
194.4969 -0.3377 21.3987 176 164 148 4
193.4288 -0.3377 22.6005 176 164 148 4
192.4340 0.0301 23.4169 176 164 148 4
191.0130 -0.3101 24.1764 176 164 148 4
189.4711 -0.3377 24.6441 176 164 148 4
187.8676 -0.3377 24.8021 176 164 148 4
186.1022 -0.3377 24.5950 176 164 148 4
184.7222 0.0602 24.1764 176 164 148 4
183.3012 -0.3377 23.4169 176 164 148 4
181.9139 0.0817 22.2219 176 164 148 4
181.0336 -0.2883 21.1492 176 164 148 4
180.1550 -0.3377 19.3359 176 164 148 4
179.7711 -0.1786 17.8287 176 164 148 4
179.6957 -0.3377 16.1019 176 164 148 4
179.8063 -0.3377 14.9794 176 164 148 4
180.2740 -0.3377 13.4375 176 164 148 4
181.3454 -0.3377 11.6365 176 164 148 4
182.4231 -0.3377 10.4695 176 164 148 4
183.3012 -0.3377 9.7488 176 164 148 4
184.7222 -0.3377 8.9893 176 164 148 4
186.2641 -0.1633 8.5215 176 164 148 4
188.4517 -0.1117 8.4211 176 164 148 4
189.4711 -0.3377 8.5215 176 164 148 4
191.0368 -0.2698 9.0020 176 164 148 4
192.4340 0.0351 9.7488 176 164 148 4
193.6795 0.1789 10.7710 176 164 148 4
194.9224 -0.1999 12.4295 176 164 148 4
195.5216 -0.3377 13.6366 176 164 148 4
195.9526 -0.3377 15.2197 176 164 148 4
171.7395 21.8354 302.2419 112 116 122 5
171.5096 21.8354 307.6485 112 116 122 5
171.9454 23.2996 312.2792 112 116 122 5
171.8268 21.8354 317.5231 112 116 122 5
176.3758 21.8354 302.4885 112 116 122 5
176.7341 25.8587 307.7397 112 116 122 5
176.2196 26.1939 312.0595 112 116 122 5
176.7930 25.0844 317.3642 112 116 122 5
181.9184 21.8354 302.2651 112 116 122 5
180.9184 26.4413 307.8374 112 116 122 5
181.4955 26.8105 312.5423 112 116 122 5
181.6998 25.8915 316.9208 112 116 122 5
186.9333 21.8354 302.5645 112 116 122 5
186.6143 24.7471 306.6969 112 116 122 5
186.2635 25.8881 311.8432 112 116 122 5
187.0934 24.1708 316.8051 112 116 122 5
171.5096 0.3969 302.6225 176 164 148 4
171.5096 4.6078 302.6726 176 164 148 4
171.5096 10.1510 302.3426 176 164 148 4
171.5096 14.9530 302.4202 176 164 148 4
171.5096 19.7057 302.6051 176 164 148 4
171.5096 -0.0846 307.6672 176 164 148 4
171.5096 4.5523 307.1658 176 164 148 4
171.5096 9.8336 307.7096 176 164 148 4
171.5096 14.8733 306.9500 176 164 148 4
171.5096 19.9115 307.0886 176 164 148 4
171.5096 -0.0846 312.3183 176 164 148 4
171.5096 4.8239 312.2430 176 164 148 4
171.5096 9.3866 311.7227 176 164 148 4
171.5096 14.6899 311.6716 176 164 148 4
171.5096 19.4295 312.1914 176 164 148 4
171.5096 0.2720 316.8509 176 164 148 4
171.5096 5.2797 317.1211 176 164 148 4
171.5096 9.8927 317.3396 176 164 148 4
171.5096 15.2372 316.7870 176 164 148 4
171.5096 19.3345 317.3214 176 164 148 4
190.0788 -0.0846 302.2419 176 164 148 4
190.0788 4.4626 302.2419 176 164 148 4
190.0788 9.5756 302.2419 176 164 148 4
190.0788 14.7954 302.2419 176 164 148 4
190.0788 19.6220 302.5814 176 164 148 4
190.0788 0.0581 306.6853 176 164 148 4
190.0788 5.3917 307.6103 176 164 148 4
190.0788 9.6134 307.5261 176 164 148 4
190.0788 14.8346 307.6863 176 164 148 4
190.0788 20.4077 306.6722 176 164 148 4
190.0788 0.3947 312.5363 176 164 148 4
190.0788 4.8856 311.7970 176 164 148 4
190.0788 9.5095 312.1139 176 164 148 4
190.0788 15.3489 311.9373 176 164 148 4
190.0788 20.2330 312.3297 176 164 148 4
190.0788 -0.0846 317.0150 176 164 148 4
190.0788 4.3429 317.1890 176 164 148 4
190.0788 10.2584 317.1586 176 164 148 4
190.0788 15.0492 316.6430 176 164 148 4
190.0788 20.2112 317.1509 176 164 148 4
171.5096 -0.0846 302.2419 176 164 148 4
171.9821 5.1738 302.2419 176 164 148 4
171.5476 9.7938 302.2419 176 164 148 4
171.5410 14.8528 302.2419 176 164 148 4
171.5096 20.0711 302.2419 176 164 148 4
176.6577 0.4095 302.2419 176 164 148 4
176.9870 4.8205 302.2419 176 164 148 4
176.8609 10.3193 302.2419 176 164 148 4
176.0776 15.5152 302.2419 176 164 148 4
176.6325 19.6527 302.2419 176 164 148 4
180.9396 -0.0706 302.2419 176 164 148 4
181.5219 5.3945 302.2419 176 164 148 4
181.2937 9.9728 302.2419 176 164 148 4
181.4489 14.4326 302.2419 176 164 148 4
181.2365 19.7231 302.2419 176 164 148 4
186.2930 -0.0846 302.2419 176 164 148 4
186.0889 4.3767 302.2419 176 164 148 4
186.5229 9.6497 302.2419 176 164 148 4
186.7086 14.8465 302.2419 176 164 148 4
187.0748 19.9096 302.2419 176 164 148 4
190.3560 84.2415 115.8627 112 116 122 5
190.5101 85.2938 120.4898 112 116 122 5
195.5637 89.3264 115.9616 112 116 122 5
195.9385 89.4182 121.3837 112 116 122 5
195.8690 89.4022 130.5833 112 116 122 5
200.9514 89.4894 115.9535 112 116 122 5
199.9217 89.6442 120.8022 112 116 122 5
200.7373 89.5292 125.4603 112 116 122 5
200.4013 89.5835 131.2359 112 116 122 5
199.8244 89.6541 135.9843 112 116 122 5
199.9314 89.6431 140.5909 112 116 122 5
199.9421 89.6420 145.3651 112 116 122 5
205.1723 87.5659 115.9700 112 116 122 5
205.2614 87.4873 120.5442 112 116 122 5
190.3560 0.8567 116.3968 176 164 148 4
190.3560 4.9684 116.3539 176 164 148 4
190.3560 10.5243 115.8627 176 164 148 4
190.3560 16.0366 116.0318 176 164 148 4
190.3560 20.5827 116.1376 176 164 148 4
190.3560 24.8729 115.8627 176 164 148 4
190.3560 30.6590 115.8627 176 164 148 4
190.3560 35.9946 116.3393 176 164 148 4
190.3560 40.6542 115.8627 176 164 148 4
190.3560 44.9817 115.9878 176 164 148 4
190.3560 50.5439 116.3254 176 164 148 4
190.3560 55.7406 115.8627 176 164 148 4
190.3560 60.6877 116.3496 176 164 148 4
190.3560 65.5459 115.8627 176 164 148 4
190.3560 70.0209 116.2757 176 164 148 4
190.3560 75.1359 115.8627 176 164 148 4
190.3560 80.7264 116.1273 176 164 148 4
190.3560 1.0446 120.9090 176 164 148 4
190.3560 5.5531 121.0979 176 164 148 4
190.3560 9.9366 120.3494 176 164 148 4
190.3560 15.3803 120.9072 176 164 148 4
190.3560 20.9507 121.3804 176 164 148 4
190.3560 25.2326 120.6369 176 164 148 4
190.3560 30.9653 120.8515 176 164 148 4
190.3560 35.6312 120.4975 176 164 148 4
190.3560 40.1235 120.5486 176 164 148 4
190.3560 45.5389 120.3898 176 164 148 4
190.3560 50.0185 121.2561 176 164 148 4
190.3560 54.9892 120.4280 176 164 148 4
190.3560 60.4849 120.9656 176 164 148 4
190.3560 65.4209 120.4244 176 164 148 4
190.3560 70.1205 120.6407 176 164 148 4
190.3560 75.0327 121.2607 176 164 148 4
190.3560 80.4175 121.1125 176 164 148 4
190.7692 0.7469 115.8627 176 164 148 4
190.3560 4.9052 115.8627 176 164 148 4
190.5468 10.2826 115.8627 176 164 148 4
190.3560 14.8528 115.8627 176 164 148 4
190.3560 20.6141 115.8627 176 164 148 4
190.8289 25.1871 115.8627 176 164 148 4
190.4101 30.0415 115.8627 176 164 148 4
190.3560 35.4364 115.8627 176 164 148 4
190.8194 40.5819 115.8627 176 164 148 4
190.3560 45.3156 115.8627 176 164 148 4
190.9173 49.9504 115.8627 176 164 148 4
190.6749 55.2820 115.8627 176 164 148 4
190.8733 60.9109 115.8627 176 164 148 4
190.8352 65.4852 115.8627 176 164 148 4
190.3560 70.1678 115.8627 176 164 148 4
190.8802 75.9463 115.8627 176 164 148 4
190.8749 79.9329 115.8627 176 164 148 4
195.2808 0.8602 115.8627 176 164 148 4
194.9686 6.0093 115.8627 176 164 148 4
195.4968 10.4256 115.8627 176 164 148 4
195.8060 15.0350 115.8627 176 164 148 4
195.0659 20.4045 115.8627 176 164 148 4
195.7661 24.8633 115.8627 176 164 148 4
195.4623 30.7825 115.8627 176 164 148 4
195.3394 35.9870 115.8627 176 164 148 4
194.7961 40.2277 115.8627 176 164 148 4
195.5928 45.1916 115.8627 176 164 148 4
195.5264 50.3537 115.8627 176 164 148 4
194.9721 55.4450 115.8627 176 164 148 4
195.2960 60.5512 115.8627 176 164 148 4
194.9121 65.1171 115.8627 176 164 148 4
195.7143 71.0123 115.8627 176 164 148 4
195.4633 75.1393 115.8627 176 164 148 4
194.9364 80.6248 115.8627 176 164 148 4
190.5174 0.4473 121.4778 176 164 148 4
190.8902 5.3564 121.4778 176 164 148 4
190.8381 10.8939 121.4778 176 164 148 4
190.3560 15.1306 121.4778 176 164 148 4
190.3560 20.5797 121.4778 176 164 148 4
190.3560 25.9009 121.4778 176 164 148 4
190.3560 30.5058 121.4778 176 164 148 4
190.3560 35.9006 121.4778 176 164 148 4
190.5906 40.8330 121.4778 176 164 148 4
190.8876 45.9458 121.4778 176 164 148 4
190.3560 50.0551 121.4778 176 164 148 4
190.3560 55.5437 121.4778 176 164 148 4
190.6987 60.0711 121.4778 176 164 148 4
190.3560 64.8507 121.4778 176 164 148 4
190.3560 70.5805 121.4778 176 164 148 4
190.3560 75.8314 121.4778 176 164 148 4
190.3720 80.3168 121.4778 176 164 148 4
195.8060 0.8751 121.4778 176 164 148 4
195.2236 5.8597 121.4778 176 164 148 4
195.6935 10.2026 121.4778 176 164 148 4
195.5375 15.6405 121.4778 176 164 148 4
195.7191 20.6008 121.4778 176 164 148 4
195.5995 24.9005 121.4778 176 164 148 4
195.7136 30.7712 121.4778 176 164 148 4
195.4530 35.7252 121.4778 176 164 148 4
195.0554 40.9581 121.4778 176 164 148 4
195.0864 45.3703 121.4778 176 164 148 4
195.1749 50.3307 121.4778 176 164 148 4
195.4907 54.9359 121.4778 176 164 148 4
195.2916 60.0942 121.4778 176 164 148 4
195.4098 65.1689 121.4778 176 164 148 4
195.5296 70.4633 121.4778 176 164 148 4
195.2232 75.9562 121.4778 176 164 148 4
195.6334 80.4616 121.4778 176 164 148 4
195.8060 0.5078 115.8627 176 164 148 4
195.8060 5.8828 115.8627 176 164 148 4
196.1623 10.7097 115.8627 176 164 148 4
196.0136 15.9732 115.8627 176 164 148 4
195.8060 20.5691 115.8627 176 164 148 4
195.8060 25.0186 115.8627 176 164 148 4
195.8060 30.9980 115.8627 176 164 148 4
196.1409 35.7642 115.8627 176 164 148 4
195.8060 40.6907 115.8627 176 164 148 4
195.8060 45.9521 115.8627 176 164 148 4
195.8060 50.5464 115.8627 176 164 148 4
196.3696 55.2642 115.8627 176 164 148 4
196.0528 60.8732 115.8627 176 164 148 4
196.3035 65.2344 115.8627 176 164 148 4
196.0450 70.3217 115.8627 176 164 148 4
196.0461 75.2776 115.8627 176 164 148 4
196.0353 80.0030 115.8627 176 164 148 4
200.9709 0.9701 115.8627 176 164 148 4
200.2744 5.7350 115.8627 176 164 148 4
200.2537 10.2838 115.8627 176 164 148 4
200.3348 15.8235 115.8627 176 164 148 4
200.6985 20.8645 115.8627 176 164 148 4
201.3072 25.7224 115.8627 176 164 148 4
201.1689 29.9582 115.8627 176 164 148 4
200.8972 34.8814 115.8627 176 164 148 4
201.0368 40.8451 115.8627 176 164 148 4
200.7743 45.0700 115.8627 176 164 148 4
200.5654 49.8762 115.8627 176 164 148 4
201.0324 55.3177 115.8627 176 164 148 4
201.0899 60.2964 115.8627 176 164 148 4
200.7859 65.6310 115.8627 176 164 148 4
200.4166 70.7050 115.8627 176 164 148 4
200.6544 75.9361 115.8627 176 164 148 4
200.3638 80.0839 115.8627 176 164 148 4
195.8060 0.4473 121.7814 176 164 148 4
195.8060 4.9900 121.4778 176 164 148 4
195.8060 10.7850 121.7527 176 164 148 4
195.8060 15.4603 121.8854 176 164 148 4
195.8060 19.8516 121.4778 176 164 148 4
195.8060 25.8439 121.4778 176 164 148 4
195.8060 30.1779 121.4778 176 164 148 4
195.8060 35.9717 121.4778 176 164 148 4
195.8060 40.8167 121.4778 176 164 148 4
195.8060 45.7260 121.9514 176 164 148 4
195.8060 50.6202 121.8590 176 164 148 4
195.8060 55.6452 121.6163 176 164 148 4
195.8060 60.1821 121.4778 176 164 148 4
195.8060 65.0480 121.4778 176 164 148 4
195.8060 70.1358 121.4778 176 164 148 4
195.8060 75.0298 121.4778 176 164 148 4
195.8060 80.1862 121.4778 176 164 148 4
195.8060 0.7164 126.3478 176 164 148 4
195.8060 5.5729 126.0127 176 164 148 4
195.8060 10.3505 125.8880 176 164 148 4
195.8060 15.4165 126.2629 176 164 148 4
195.8060 19.9462 126.4233 176 164 148 4
195.8060 26.0359 127.0339 176 164 148 4
195.8060 30.8676 126.4404 176 164 148 4
195.8060 35.9299 126.2694 176 164 148 4
195.8060 40.3681 127.0662 176 164 148 4
195.8060 44.9376 126.4813 176 164 148 4
195.8060 50.2856 127.0667 176 164 148 4
195.8060 55.4625 126.5280 176 164 148 4
195.8060 60.2335 126.8703 176 164 148 4
195.8060 65.6146 127.0319 176 164 148 4
195.8060 70.9017 125.9282 176 164 148 4
195.8060 76.0013 126.4726 176 164 148 4
195.8060 80.8204 126.0250 176 164 148 4
195.8060 0.8724 131.1799 176 164 148 4
195.8060 5.1990 132.0391 176 164 148 4
195.8060 10.5808 132.0358 176 164 148 4
195.8060 15.5558 131.9581 176 164 148 4
195.8060 19.9704 131.8311 176 164 148 4
195.8060 25.8475 130.9537 176 164 148 4
195.8060 30.9486 131.8478 176 164 148 4
195.8060 34.8523 131.0312 176 164 148 4
195.8060 40.3184 131.3302 176 164 148 4
195.8060 45.6003 131.5908 176 164 148 4
195.8060 50.6610 131.3235 176 164 148 4
195.8060 56.0007 131.5936 176 164 148 4
195.8060 60.9146 131.8489 176 164 148 4
195.8060 65.4258 131.3821 176 164 148 4
195.8060 70.7940 130.9821 176 164 148 4
195.8060 74.8952 131.5752 176 164 148 4
195.8060 80.8565 131.2258 176 164 148 4
195.8060 0.7363 136.2908 176 164 148 4
195.8060 5.7596 136.6630 176 164 148 4
195.8060 11.0340 135.9206 176 164 148 4
195.8060 14.8823 136.5316 176 164 148 4
195.8060 20.0472 136.5208 176 164 148 4
195.8060 25.5419 136.1830 176 164 148 4
195.8060 30.2286 136.8174 176 164 148 4
195.8060 35.2912 136.7535 176 164 148 4
195.8060 40.2845 136.3580 176 164 148 4
195.8060 45.6847 137.0607 176 164 148 4
195.8060 50.8263 136.2154 176 164 148 4
195.8060 55.2650 136.3680 176 164 148 4
195.8060 60.7625 136.6982 176 164 148 4
195.8060 65.4228 136.4433 176 164 148 4
195.8060 70.6518 135.9279 176 164 148 4
195.8060 75.8048 136.9779 176 164 148 4
195.8060 80.9329 136.3169 176 164 148 4
195.8060 0.4473 141.8808 176 164 148 4
195.8060 5.5511 141.4767 176 164 148 4
195.8060 10.1444 141.1793 176 164 148 4
195.8060 15.6950 141.8120 176 164 148 4
195.8060 20.1720 141.0882 176 164 148 4
195.8060 26.0016 142.0748 176 164 148 4
195.8060 30.1700 141.5531 176 164 148 4
195.8060 35.7466 141.5594 176 164 148 4
195.8060 40.7492 141.4880 176 164 148 4
195.8060 45.1979 141.0817 176 164 148 4
195.8060 50.2774 141.2537 176 164 148 4
195.8060 55.2708 141.4423 176 164 148 4
195.8060 60.8944 141.8472 176 164 148 4
195.8060 65.1565 141.7922 176 164 148 4
195.8060 69.9164 141.9606 176 164 148 4
195.8060 75.1999 141.4362 176 164 148 4
195.8060 81.0199 141.8058 176 164 148 4
195.8060 0.4473 146.7121 176 164 148 4
195.8060 5.8322 146.3310 176 164 148 4
195.8060 10.4336 146.4156 176 164 148 4
195.8060 15.7913 146.1014 176 164 148 4
195.8060 20.6287 146.9334 176 164 148 4
195.8060 25.3276 146.2103 176 164 148 4
195.8060 30.0512 146.8213 176 164 148 4
195.8060 35.3147 145.9969 176 164 148 4
195.8060 40.4764 146.9115 176 164 148 4
195.8060 45.6345 146.0445 176 164 148 4
195.8060 50.4554 146.5290 176 164 148 4
195.8060 54.9786 146.9070 176 164 148 4
195.8060 60.0114 146.0335 176 164 148 4
195.8060 65.1716 146.5939 176 164 148 4
195.8060 70.7831 146.6543 176 164 148 4
195.8060 75.9377 145.9551 176 164 148 4
195.8060 80.2201 146.9847 176 164 148 4
201.4211 0.4473 121.4778 176 164 148 4
201.4211 5.8461 121.4778 176 164 148 4
201.4211 10.6412 121.5243 176 164 148 4
201.4211 15.2183 121.9524 176 164 148 4
201.4211 19.9733 121.4778 176 164 148 4
201.4211 25.9134 121.9852 176 164 148 4
201.4211 29.9439 121.7153 176 164 148 4
201.4211 35.4468 121.4778 176 164 148 4
201.4211 40.1709 121.6302 176 164 148 4
201.4211 45.2402 121.9034 176 164 148 4
201.4211 50.8117 121.7473 176 164 148 4
201.4211 55.3137 121.4778 176 164 148 4
201.4211 60.2622 121.5214 176 164 148 4
201.4211 65.9881 122.0309 176 164 148 4
201.4211 70.6669 122.0098 176 164 148 4
201.4211 75.5644 121.4778 176 164 148 4
201.4211 80.8510 121.4778 176 164 148 4
201.4211 0.4473 126.5091 176 164 148 4
201.4211 5.3296 126.3485 176 164 148 4
201.4211 9.9025 126.3698 176 164 148 4
201.4211 15.1225 126.9874 176 164 148 4
201.4211 20.7195 126.0307 176 164 148 4
201.4211 25.4846 127.0734 176 164 148 4
201.4211 30.3248 126.8591 176 164 148 4
201.4211 35.6672 126.8224 176 164 148 4
201.4211 40.2414 126.5326 176 164 148 4
201.4211 45.3088 125.9156 176 164 148 4
201.4211 50.5425 126.4583 176 164 148 4
201.4211 55.3473 126.4459 176 164 148 4
201.4211 60.7515 126.2302 176 164 148 4
201.4211 65.4623 126.4580 176 164 148 4
201.4211 70.9913 126.4870 176 164 148 4
201.4211 74.9973 126.6314 176 164 148 4
201.4211 80.0244 126.6264 176 164 148 4
201.4211 0.4473 131.7394 176 164 148 4
201.4211 5.1798 131.6943 176 164 148 4
201.4211 10.2081 131.0711 176 164 148 4
201.4211 15.3938 131.8254 176 164 148 4
201.4211 20.4943 131.3261 176 164 148 4
201.4211 25.5635 131.2257 176 164 148 4
201.4211 30.6131 131.5697 176 164 148 4
201.4211 35.8026 131.8276 176 164 148 4
201.4211 40.8071 131.4217 176 164 148 4
201.4211 45.6095 131.6123 176 164 148 4
201.4211 49.8536 131.1819 176 164 148 4
201.4211 55.8421 131.3009 176 164 148 4
201.4211 60.8098 131.3333 176 164 148 4
201.4211 65.7842 132.0485 176 164 148 4
201.4211 70.8454 131.9272 176 164 148 4
201.4211 75.3021 131.0594 176 164 148 4
201.4211 80.9205 131.6103 176 164 148 4
201.4211 0.4573 136.6508 176 164 148 4
201.4211 5.2721 136.0919 176 164 148 4
201.4211 10.9955 136.9655 176 164 148 4
201.4211 15.5011 136.6912 176 164 148 4
201.4211 20.6513 136.1227 176 164 148 4
201.4211 25.9568 136.7520 176 164 148 4
201.4211 30.2837 136.2785 176 164 148 4
201.4211 35.3149 137.0750 176 164 148 4
201.4211 40.0093 135.9311 176 164 148 4
201.4211 45.6444 135.9404 176 164 148 4
201.4211 50.7796 136.2047 176 164 148 4
201.4211 55.4016 136.8010 176 164 148 4
201.4211 60.1674 136.4573 176 164 148 4
201.4211 65.2949 137.0098 176 164 148 4
201.4211 70.4693 135.8958 176 164 148 4
201.4211 74.9657 136.9847 176 164 148 4
201.4211 80.9736 135.8934 176 164 148 4
201.4211 0.4473 141.2494 176 164 148 4
201.4211 5.0487 142.0198 176 164 148 4
201.4211 11.0375 141.4140 176 164 148 4
201.4211 15.0040 141.2233 176 164 148 4
201.4211 20.1898 141.1701 176 164 148 4
201.4211 25.2125 141.6069 176 164 148 4
201.4211 30.6616 141.2852 176 164 148 4
201.4211 35.4199 142.0721 176 164 148 4
201.4211 40.1502 141.8207 176 164 148 4
201.4211 45.1411 141.0835 176 164 148 4
201.4211 50.9840 140.9254 176 164 148 4
201.4211 55.0159 141.2446 176 164 148 4
201.4211 60.9747 140.9019 176 164 148 4
201.4211 65.3709 141.9488 176 164 148 4
201.4211 70.5192 140.9811 176 164 148 4
201.4211 75.4148 141.2684 176 164 148 4
201.4211 80.1691 142.0071 176 164 148 4
201.4211 0.4473 146.1473 176 164 148 4
201.4211 5.7753 146.5216 176 164 148 4
201.4211 10.0493 146.2617 176 164 148 4
201.4211 15.1006 146.4074 176 164 148 4
201.4211 20.7498 146.9280 176 164 148 4
201.4211 25.6396 146.0613 176 164 148 4
201.4211 29.8916 145.9076 176 164 148 4
201.4211 35.3094 146.9541 176 164 148 4
201.4211 40.5145 146.4841 176 164 148 4
201.4211 45.7990 146.1192 176 164 148 4
201.4211 49.8830 146.7906 176 164 148 4
201.4211 55.4596 145.9004 176 164 148 4
201.4211 60.5600 146.6031 176 164 148 4
201.4211 65.2524 146.4298 176 164 148 4
201.4211 70.6122 145.9655 176 164 148 4
201.4211 75.1897 146.2848 176 164 148 4
201.4211 80.3163 146.3002 176 164 148 4
195.8060 0.6907 150.7802 176 164 148 4
195.8785 5.7318 150.7802 176 164 148 4
195.8060 10.5682 150.7802 176 164 148 4
195.8060 15.2735 150.7802 176 164 148 4
195.8799 20.3969 150.7802 176 164 148 4
195.8060 25.4861 150.7802 176 164 148 4
195.8060 30.5608 150.7802 176 164 148 4
195.8060 35.5307 150.7802 176 164 148 4
195.9231 40.3866 150.7802 176 164 148 4
196.1748 45.9694 150.7802 176 164 148 4
195.8060 50.5576 150.7802 176 164 148 4
195.8060 55.5080 150.7802 176 164 148 4
195.8060 60.0564 150.7802 176 164 148 4
195.8060 65.2099 150.7802 176 164 148 4
195.8928 70.5241 150.7802 176 164 148 4
196.0670 75.3067 150.7802 176 164 148 4
195.9987 79.8681 150.7802 176 164 148 4
200.6404 0.4473 150.7802 176 164 148 4
201.2121 5.0438 150.7802 176 164 148 4
201.1909 10.7802 150.7802 176 164 148 4
201.0713 15.3987 150.7802 176 164 148 4
201.0522 21.0299 150.7802 176 164 148 4
200.9040 25.5981 150.7802 176 164 148 4
200.6551 30.0788 150.7802 176 164 148 4
200.2757 36.0176 150.7802 176 164 148 4
200.3925 40.7686 150.7802 176 164 148 4
200.9965 45.2564 150.7802 176 164 148 4
201.1914 50.4930 150.7802 176 164 148 4
200.4317 55.1820 150.7802 176 164 148 4
200.4564 60.0869 150.7802 176 164 148 4
200.4496 65.7236 150.7802 176 164 148 4
201.1192 70.0821 150.7802 176 164 148 4
200.2138 75.3465 150.7802 176 164 148 4
200.9215 80.2886 150.7802 176 164 148 4
206.8711 0.5530 116.1443 176 164 148 4
206.8711 4.8827 116.0105 176 164 148 4
206.8711 10.1321 115.8627 176 164 148 4
206.8711 15.0952 115.8627 176 164 148 4
206.8711 20.4525 115.8627 176 164 148 4
206.8711 25.0828 115.8627 176 164 148 4
206.8711 29.8963 115.8627 176 164 148 4
206.8711 35.2489 115.9380 176 164 148 4
206.8711 40.7340 115.8627 176 164 148 4
206.8711 45.2942 115.8627 176 164 148 4
206.8711 50.8895 116.3203 176 164 148 4
206.8711 55.2833 115.8627 176 164 148 4
206.8711 60.4142 116.4313 176 164 148 4
206.8711 65.1683 116.4470 176 164 148 4
206.8711 70.0894 116.3398 176 164 148 4
206.8711 74.8625 115.8627 176 164 148 4
206.8711 80.1854 115.8627 176 164 148 4
206.8711 0.4473 121.0958 176 164 148 4
206.8711 5.2456 120.3829 176 164 148 4
206.8711 10.4167 120.5575 176 164 148 4
206.8711 15.6959 120.7837 176 164 148 4
206.8711 19.9017 120.7301 176 164 148 4
206.8711 25.6382 120.5810 176 164 148 4
206.8711 30.8398 121.2753 176 164 148 4
206.8711 35.3977 121.2921 176 164 148 4
206.8711 40.3199 121.3725 176 164 148 4
206.8711 45.5411 120.9225 176 164 148 4
206.8711 50.8231 120.8623 176 164 148 4
206.8711 55.2808 120.7982 176 164 148 4
206.8711 60.1658 120.8036 176 164 148 4
206.8711 65.8850 120.2853 176 164 148 4
206.8711 70.6613 120.5182 176 164 148 4
206.8711 75.1896 120.5463 176 164 148 4
206.8711 80.8383 120.7572 176 164 148 4
201.6491 0.4473 115.8627 176 164 148 4
201.4211 4.9628 115.8627 176 164 148 4
201.4211 10.8037 115.8627 176 164 148 4
201.4211 15.0879 115.8627 176 164 148 4
201.9904 20.7892 115.8627 176 164 148 4
201.4211 24.8736 115.8627 176 164 148 4
201.6326 30.0448 115.8627 176 164 148 4
201.8741 35.7020 115.8627 176 164 148 4
201.4211 40.3721 115.8627 176 164 148 4
201.8710 45.2196 115.8627 176 164 148 4
201.4211 50.5083 115.8627 176 164 148 4
201.5269 55.3393 115.8627 176 164 148 4
201.4211 60.5137 115.8627 176 164 148 4
201.9598 65.6567 115.8627 176 164 148 4
201.4211 70.7456 115.8627 176 164 148 4
201.4211 75.2525 115.8627 176 164 148 4
201.4211 80.9411 115.8627 176 164 148 4
206.8711 0.7008 115.8627 176 164 148 4
206.8711 5.6807 115.8627 176 164 148 4
206.3772 10.8353 115.8627 176 164 148 4
206.7694 14.9138 115.8627 176 164 148 4
206.2726 20.2033 115.8627 176 164 148 4
206.6872 25.9749 115.8627 176 164 148 4
206.8711 30.9919 115.8627 176 164 148 4
206.4578 35.1049 115.8627 176 164 148 4
206.5723 40.0917 115.8627 176 164 148 4
206.8192 45.5320 115.8627 176 164 148 4
205.8736 50.4164 115.8627 176 164 148 4
206.0546 55.7667 115.8627 176 164 148 4
206.4075 60.9910 115.8627 176 164 148 4
206.7502 65.3751 115.8627 176 164 148 4
206.4607 70.9168 115.8627 176 164 148 4
206.1114 74.9336 115.8627 176 164 148 4
206.1510 80.9635 115.8627 176 164 148 4
201.4211 0.7119 121.4778 176 164 148 4
201.4695 5.7250 121.4778 176 164 148 4
201.4211 10.3268 121.4778 176 164 148 4
201.4211 15.4068 121.4778 176 164 148 4
201.4211 20.1843 121.4778 176 164 148 4
201.4980 25.0137 121.4778 176 164 148 4
201.5131 30.6997 121.4778 176 164 148 4
201.6317 35.3035 121.4778 176 164 148 4
201.4211 40.2485 121.4778 176 164 148 4
201.8256 45.7600 121.4778 176 164 148 4
201.4211 50.6087 121.4778 176 164 148 4
201.7738 55.7827 121.4778 176 164 148 4
201.8444 61.0451 121.4778 176 164 148 4
201.4211 65.3998 121.4778 176 164 148 4
201.6415 70.5206 121.4778 176 164 148 4
201.4211 75.9577 121.4778 176 164 148 4
201.6062 79.9691 121.4778 176 164 148 4
206.5097 0.8894 121.4778 176 164 148 4
206.3761 5.0334 121.4778 176 164 148 4
206.3483 10.0214 121.4778 176 164 148 4
206.4586 15.1495 121.4778 176 164 148 4
206.6815 20.1134 121.4778 176 164 148 4
206.8032 25.9917 121.4778 176 164 148 4
206.3770 30.2008 121.4778 176 164 148 4
206.4959 35.2733 121.4778 176 164 148 4
206.4671 41.0232 121.4778 176 164 148 4
206.6134 45.2516 121.4778 176 164 148 4
206.7859 50.7347 121.4778 176 164 148 4
206.7251 55.0551 121.4778 176 164 148 4
206.7381 60.3457 121.4778 176 164 148 4
206.0155 65.1000 121.4778 176 164 148 4
205.8356 70.2145 121.4778 176 164 148 4
205.8377 75.1664 121.4778 176 164 148 4
206.8711 80.7088 121.4778 176 164 148 4
240.5448 22.4504 300.4077 112 116 122 5
240.5617 22.4790 305.5702 112 116 122 5
244.5421 25.0967 300.4494 112 116 122 5
245.1313 25.2471 305.0666 112 116 122 5
250.0023 25.4044 300.8374 112 116 122 5
250.0952 25.3895 305.2756 112 116 122 5
250.3116 25.3522 310.7457 112 116 122 5
249.8709 25.4241 315.9839 112 116 122 5
255.3952 22.4798 300.8645 112 116 122 5
255.3015 22.6286 305.4668 112 116 122 5
240.1254 0.3699 300.4077 176 164 148 4
240.1254 4.9569 300.4077 176 164 148 4
240.1254 9.9839 300.7748 176 164 148 4
240.1254 14.9869 300.8271 176 164 148 4
240.1254 20.3715 300.8638 176 164 148 4
240.1254 -0.0004 305.4800 176 164 148 4
240.1254 5.0011 305.2277 176 164 148 4
240.1254 10.3207 305.2286 176 164 148 4
240.1254 14.6918 304.8681 176 164 148 4
240.1254 19.4409 305.5325 176 164 148 4
240.4058 0.4756 300.4077 176 164 148 4
240.1254 5.3542 300.4077 176 164 148 4
240.6093 9.8139 300.4077 176 164 148 4
240.1254 15.2781 300.4077 176 164 148 4
240.1254 19.5011 300.4077 176 164 148 4
245.3085 0.2134 300.4077 176 164 148 4
244.5602 4.8817 300.4077 176 164 148 4
244.6407 9.8281 300.4077 176 164 148 4
245.3085 14.7441 300.4077 176 164 148 4
244.5787 20.4992 300.4077 176 164 148 4
240.4274 -0.0004 305.7479 176 164 148 4
240.1254 4.8682 305.7479 176 164 148 4
240.6494 9.5879 305.7479 176 164 148 4
240.3149 15.5286 305.7479 176 164 148 4
240.4025 20.4549 305.7479 176 164 148 4
245.3085 -0.0004 305.7479 176 164 148 4
245.3085 5.1324 305.7479 176 164 148 4
245.3085 10.1870 305.7479 176 164 148 4
245.1274 14.4839 305.7479 176 164 148 4
244.5526 20.0058 305.7479 176 164 148 4
245.3085 -0.0004 300.4077 176 164 148 4
245.4259 4.9961 300.4077 176 164 148 4
245.4464 9.6029 300.4077 176 164 148 4
245.3085 15.2470 300.4077 176 164 148 4
245.3085 19.5349 300.4077 176 164 148 4
249.9718 0.5926 300.4077 176 164 148 4
250.0850 5.1103 300.4077 176 164 148 4
250.0480 9.7920 300.4077 176 164 148 4
250.4761 15.1299 300.4077 176 164 148 4
250.6184 20.1707 300.4077 176 164 148 4
245.3085 0.3668 305.7479 176 164 148 4
245.3085 5.5451 306.0206 176 164 148 4
245.3085 9.5673 305.8939 176 164 148 4
245.3085 15.2348 305.7479 176 164 148 4
245.3085 20.1771 305.7479 176 164 148 4
245.3085 -0.0004 310.2635 176 164 148 4
245.3085 4.7148 310.6782 176 164 148 4
245.3085 9.7536 310.9506 176 164 148 4
245.3085 15.3929 310.5474 176 164 148 4
245.3085 19.4822 310.4864 176 164 148 4
245.3085 -0.0004 316.0208 176 164 148 4
245.3085 4.8760 315.6921 176 164 148 4
245.3085 9.5273 315.4805 176 164 148 4
245.3085 14.6063 315.6106 176 164 148 4
245.3085 20.2363 316.3392 176 164 148 4
250.6487 -0.0004 306.1171 176 164 148 4
250.6487 4.5449 305.7479 176 164 148 4
250.6487 9.8477 305.7479 176 164 148 4
250.6487 14.5977 305.9006 176 164 148 4
250.6487 20.3113 305.7479 176 164 148 4
250.6487 -0.0004 310.8342 176 164 148 4
250.6487 5.1599 310.6401 176 164 148 4
250.6487 9.9260 310.4412 176 164 148 4
250.6487 15.3165 311.0238 176 164 148 4
250.6487 20.5986 310.6772 176 164 148 4
250.6487 0.2805 315.7148 176 164 148 4
250.6487 4.5613 315.6711 176 164 148 4
250.6487 10.0060 316.1524 176 164 148 4
250.6487 14.9135 316.1718 176 164 148 4
250.6487 19.9981 315.2390 176 164 148 4
255.8319 -0.0004 300.4077 176 164 148 4
255.8319 5.1484 300.4077 176 164 148 4
255.8319 9.7063 300.7969 176 164 148 4
255.8319 15.1358 300.4077 176 164 148 4
255.8319 20.5644 300.4077 176 164 148 4
255.8319 0.1483 305.7365 176 164 148 4
255.8319 4.6865 304.8409 176 164 148 4
255.8319 10.1963 305.6952 176 164 148 4
255.8319 14.6390 305.7479 176 164 148 4
255.8319 19.4060 305.4489 176 164 148 4
250.6995 -0.0004 300.4077 176 164 148 4
250.9632 5.0506 300.4077 176 164 148 4
250.6487 10.3711 300.4077 176 164 148 4
250.6487 15.0939 300.4077 176 164 148 4
250.9630 20.2310 300.4077 176 164 148 4
255.4546 0.5620 300.4077 176 164 148 4
255.8319 5.1586 300.4077 176 164 148 4
255.5427 10.5183 300.4077 176 164 148 4
255.4496 14.6982 300.4077 176 164 148 4
255.2211 20.5282 300.4077 176 164 148 4
250.6487 -0.0004 305.7479 176 164 148 4
250.6487 4.9670 305.7479 176 164 148 4
251.1829 9.8083 305.7479 176 164 148 4
250.6487 14.9293 305.7479 176 164 148 4
250.6487 19.6066 305.7479 176 164 148 4
255.7204 -0.0004 305.7479 176 164 148 4
255.1823 5.4632 305.7479 176 164 148 4
255.7911 10.4373 305.7479 176 164 148 4
255.5583 14.7328 305.7479 176 164 148 4
255.7920 20.3975 305.7479 176 164 148 4
233.5457 49.4868 101.3826 112 116 122 5
233.8901 49.4868 105.3162 112 116 122 5
233.7012 49.4868 110.4957 112 116 122 5
238.8838 49.4868 101.3893 112 116 122 5
238.8919 50.5891 106.0601 112 116 122 5
238.2581 50.1149 110.2782 112 116 122 5
243.0954 49.4868 101.3982 112 116 122 5
243.5613 51.3805 105.3862 112 116 122 5
243.8892 50.9829 110.6716 112 116 122 5
248.1767 49.4868 100.8478 112 116 122 5
248.0017 52.1105 105.4139 112 116 122 5
248.0449 51.3337 110.9503 112 116 122 5
253.6357 49.4868 100.8478 112 116 122 5
253.2301 52.5923 105.9336 112 116 122 5
253.3485 51.4826 110.8763 112 116 122 5
258.0349 49.4868 100.8478 112 116 122 5
259.0685 51.6568 105.9740 112 116 122 5
258.0335 51.3248 110.3070 112 116 122 5
263.8352 49.4868 100.8478 112 116 122 5
263.9821 50.6648 106.2860 112 116 122 5
263.2956 50.0300 111.2858 112 116 122 5
268.8633 49.4868 100.8478 112 116 122 5
269.0968 49.4868 105.7987 112 116 122 5
269.0477 49.4868 110.6362 112 116 122 5
233.5457 0.6040 101.3212 176 164 148 4
233.5457 5.5153 100.9561 176 164 148 4
233.5457 9.9410 100.8478 176 164 148 4
233.5457 14.9428 100.9374 176 164 148 4
233.5457 20.4281 100.8602 176 164 148 4
233.5457 25.4937 100.8478 176 164 148 4
233.5457 30.4559 100.8478 176 164 148 4
233.5457 35.2466 100.8478 176 164 148 4
233.5457 39.6550 100.8478 176 164 148 4
233.5457 45.2161 101.3005 176 164 148 4
233.5457 0.2341 105.9987 176 164 148 4
233.5457 5.3245 105.7270 176 164 148 4
233.5457 10.1689 105.7839 176 164 148 4
233.5457 14.9916 106.3344 176 164 148 4
233.5457 20.8306 106.3914 176 164 148 4
233.5457 25.5483 106.4119 176 164 148 4
233.5457 30.2176 106.3143 176 164 148 4
233.5457 34.8381 105.9689 176 164 148 4
233.5457 40.7183 105.8374 176 164 148 4
233.5457 45.2427 106.2914 176 164 148 4
233.5457 0.2341 110.7847 176 164 148 4
233.5457 5.1815 110.5725 176 164 148 4
233.5457 9.6867 111.4461 176 164 148 4
233.5457 15.3998 111.4151 176 164 148 4
233.5457 20.3742 110.7264 176 164 148 4
233.5457 25.2783 111.2000 176 164 148 4
233.5457 29.8440 110.4392 176 164 148 4
233.5457 35.3065 110.4990 176 164 148 4
233.5457 39.8070 110.8778 176 164 148 4
233.5457 44.9275 111.1997 176 164 148 4
269.4950 0.3153 100.8478 176 164 148 4
269.4950 4.8260 100.8478 176 164 148 4
269.4950 10.5019 100.8478 176 164 148 4
269.4950 15.7122 101.3581 176 164 148 4
269.4950 20.5995 101.1695 176 164 148 4
269.4950 25.2715 101.0066 176 164 148 4
269.4950 30.7863 100.8478 176 164 148 4
269.4950 34.9677 100.8478 176 164 148 4
269.4950 40.5634 100.8478 176 164 148 4
269.4950 45.4807 101.1914 176 164 148 4
269.4950 0.4659 105.9932 176 164 148 4
269.4950 4.9475 106.3044 176 164 148 4
269.4950 10.5678 105.9294 176 164 148 4
269.4950 15.1968 106.0222 176 164 148 4
269.4950 20.5245 106.1037 176 164 148 4
269.4950 25.1709 105.8682 176 164 148 4
269.4950 29.7997 105.9765 176 164 148 4
269.4950 35.5560 106.1861 176 164 148 4
269.4950 40.5251 106.2190 176 164 148 4
269.4950 45.2714 105.9373 176 164 148 4
269.4950 0.2341 111.3390 176 164 148 4
269.4950 5.6865 111.0959 176 164 148 4
269.4950 10.0451 110.8769 176 164 148 4
269.4950 15.4048 110.3333 176 164 148 4
269.4950 19.7634 110.6202 176 164 148 4
269.4950 25.8151 111.0870 176 164 148 4
269.4950 29.8347 110.8968 176 164 148 4
269.4950 35.7077 110.4330 176 164 148 4
269.4950 40.2763 111.4477 176 164 148 4
269.4950 45.5914 111.2922 176 164 148 4
234.0071 0.5046 100.8478 176 164 148 4
233.5457 5.0115 100.8478 176 164 148 4
233.5457 10.7193 100.8478 176 164 148 4
233.5457 14.9746 100.8478 176 164 148 4
233.6243 20.2429 100.8478 176 164 148 4
233.8463 25.5431 100.8478 176 164 148 4
233.5457 29.6646 100.8478 176 164 148 4
233.5457 35.2996 100.8478 176 164 148 4
233.8373 40.4924 100.8478 176 164 148 4
233.5457 45.3866 100.8478 176 164 148 4
238.0820 0.2341 100.8478 176 164 148 4
238.7195 5.0545 100.8478 176 164 148 4
238.8253 9.8508 100.8478 176 164 148 4
238.3862 14.7233 100.8478 176 164 148 4
238.8006 20.7494 100.8478 176 164 148 4
239.1205 24.6938 100.8478 176 164 148 4
239.0250 29.9251 100.8478 176 164 148 4
238.4871 35.0263 100.8478 176 164 148 4
238.4544 40.1530 100.8478 176 164 148 4
238.5195 45.3463 100.8478 176 164 148 4
243.0183 0.2683 100.8478 176 164 148 4
243.8399 5.4387 100.8478 176 164 148 4
243.1908 10.1064 100.8478 176 164 148 4
243.0496 14.7710 100.8478 176 164 148 4
243.5586 20.4146 100.8478 176 164 148 4
243.5808 25.1427 100.8478 176 164 148 4
243.0071 29.7592 100.8478 176 164 148 4
243.7088 35.7712 100.8478 176 164 148 4
243.3404 39.9810 100.8478 176 164 148 4
244.1121 45.1601 100.8478 176 164 148 4
247.9766 0.3142 100.8478 176 164 148 4
248.1635 5.2572 100.8478 176 164 148 4
249.1204 10.7848 100.8478 176 164 148 4
248.0668 14.7260 100.8478 176 164 148 4
248.4239 20.6854 100.8478 176 164 148 4
249.0826 25.0155 100.8478 176 164 148 4
248.3440 30.4877 100.8478 176 164 148 4
248.8078 35.4064 100.8478 176 164 148 4
248.7289 40.4566 100.8478 176 164 148 4
248.5430 45.0415 100.8478 176 164 148 4
253.7748 0.2341 100.8478 176 164 148 4
254.0351 4.9822 100.8478 176 164 148 4
253.2022 10.4856 100.8478 176 164 148 4
253.8823 15.7817 100.8478 176 164 148 4
254.0795 20.5286 100.8478 176 164 148 4
253.3783 24.9821 100.8478 176 164 148 4
253.1199 30.4337 100.8478 176 164 148 4
254.0368 35.6467 100.8478 176 164 148 4
254.0286 40.3738 100.8478 176 164 148 4
253.3846 45.5774 100.8478 176 164 148 4
259.1254 0.2341 100.8478 176 164 148 4
258.3491 4.8025 100.8478 176 164 148 4
258.9040 10.5605 100.8478 176 164 148 4
258.8857 15.7514 100.8478 176 164 148 4
258.7122 20.1820 100.8478 176 164 148 4
258.2618 25.4419 100.8478 176 164 148 4
258.1361 29.9726 100.8478 176 164 148 4
258.1012 34.9552 100.8478 176 164 148 4
258.9220 40.1835 100.8478 176 164 148 4
259.0096 45.2190 100.8478 176 164 148 4
263.6621 0.2341 100.8478 176 164 148 4
264.0447 5.8178 100.8478 176 164 148 4
263.7704 10.4986 100.8478 176 164 148 4
263.6111 15.7682 100.8478 176 164 148 4
263.2780 20.2581 100.8478 176 164 148 4
263.2168 25.3698 100.8478 176 164 148 4
263.6107 30.3016 100.8478 176 164 148 4
263.3030 34.8571 100.8478 176 164 148 4
263.2658 39.6411 100.8478 176 164 148 4
263.3754 44.6432 100.8478 176 164 148 4
268.8662 0.5176 100.8478 176 164 148 4
268.3189 5.5437 100.8478 176 164 148 4
268.9984 9.6884 100.8478 176 164 148 4
268.4881 14.9017 100.8478 176 164 148 4
268.2473 20.7643 100.8478 176 164 148 4
268.1788 24.6584 100.8478 176 164 148 4
268.1711 30.3119 100.8478 176 164 148 4
268.6295 34.9695 100.8478 176 164 148 4
268.8988 40.6241 100.8478 176 164 148 4
269.0982 45.6086 100.8478 176 164 148 4
233.5457 0.2341 114.1322 176 164 148 4
233.7183 5.1929 114.1322 176 164 148 4
233.5457 10.1825 114.1322 176 164 148 4
234.0575 15.1238 114.1322 176 164 148 4
234.0363 19.8538 114.1322 176 164 148 4
234.0642 25.4864 114.1322 176 164 148 4
233.9553 30.0088 114.1322 176 164 148 4
233.5457 35.3233 114.1322 176 164 148 4
233.7838 40.0322 114.1322 176 164 148 4
233.7062 45.2383 114.1322 176 164 148 4
238.3851 0.2341 114.1322 176 164 148 4
238.9407 5.4298 114.1322 176 164 148 4
238.8495 10.7695 114.1322 176 164 148 4
237.9717 15.5507 114.1322 176 164 148 4
239.0527 19.7539 114.1322 176 164 148 4
238.7077 25.7488 114.1322 176 164 148 4
238.6459 30.2397 114.1322 176 164 148 4
239.0010 35.6202 114.1322 176 164 148 4
239.0517 40.6097 114.1322 176 164 148 4
238.6918 45.5570 114.1322 176 164 148 4
243.2825 0.7372 114.1322 176 164 148 4
243.4546 5.6170 114.1322 176 164 148 4
244.1272 10.2936 114.1322 176 164 148 4
243.9734 14.7567 114.1322 176 164 148 4
243.3285 20.4431 114.1322 176 164 148 4
244.0750 25.6513 114.1322 176 164 148 4
244.0265 30.6267 114.1322 176 164 148 4
243.8951 34.8392 114.1322 176 164 148 4
243.2064 40.8162 114.1322 176 164 148 4
243.6360 44.6611 114.1322 176 164 148 4
248.3884 0.2341 114.1322 176 164 148 4
248.8997 4.7248 114.1322 176 164 148 4
248.3497 10.5220 114.1322 176 164 148 4
248.3177 15.3609 114.1322 176 164 148 4
248.7685 19.7593 114.1322 176 164 148 4
248.0710 25.2981 114.1322 176 164 148 4
248.8347 30.6965 114.1322 176 164 148 4
248.3709 35.7098 114.1322 176 164 148 4
248.6659 40.1981 114.1322 176 164 148 4
248.4745 44.9508 114.1322 176 164 148 4
252.9894 0.7650 114.1322 176 164 148 4
252.9930 4.9900 114.1322 176 164 148 4
253.7416 10.2656 114.1322 176 164 148 4
253.5635 15.2492 114.1322 176 164 148 4
253.6403 20.2057 114.1322 176 164 148 4
253.4834 25.6501 114.1322 176 164 148 4
253.4166 30.1422 114.1322 176 164 148 4
254.1399 35.0624 114.1322 176 164 148 4
253.7578 40.2063 114.1322 176 164 148 4
253.4539 45.1133 114.1322 176 164 148 4
258.0008 0.2669 114.1322 176 164 148 4
258.8361 4.7024 114.1322 176 164 148 4
258.9191 10.2164 114.1322 176 164 148 4
259.0064 15.1805 114.1322 176 164 148 4
258.9716 20.1012 114.1322 176 164 148 4
257.9528 24.9252 114.1322 176 164 148 4
258.3694 29.8110 114.1322 176 164 148 4
258.5206 35.2957 114.1322 176 164 148 4
258.6199 40.1195 114.1322 176 164 148 4
258.3198 45.4662 114.1322 176 164 148 4
264.0454 0.2341 114.1322 176 164 148 4
263.0627 5.8139 114.1322 176 164 148 4
263.2036 10.7668 114.1322 176 164 148 4
264.0772 15.5922 114.1322 176 164 148 4
264.1367 20.2475 114.1322 176 164 148 4
263.9662 25.3064 114.1322 176 164 148 4
263.8303 29.7987 114.1322 176 164 148 4
263.8112 35.0084 114.1322 176 164 148 4
263.4730 39.7695 114.1322 176 164 148 4
263.5198 45.6617 114.1322 176 164 148 4
268.4195 0.5671 114.1322 176 164 148 4
268.3284 4.8126 114.1322 176 164 148 4
268.7039 9.8958 114.1322 176 164 148 4
268.8095 14.9163 114.1322 176 164 148 4
268.8183 19.6970 114.1322 176 164 148 4
268.4421 25.2809 114.1322 176 164 148 4
269.1266 30.8239 114.1322 176 164 148 4
268.7070 34.8091 114.1322 176 164 148 4
268.7344 40.4656 114.1322 176 164 148 4
268.5377 45.6751 114.1322 176 164 148 4
261.4194 31.5686 23.1749 112 116 122 5
265.8713 31.3816 12.4654 112 116 122 5
265.6036 31.4752 17.8264 112 116 122 5
266.0661 31.5762 23.6119 112 116 122 5
266.3196 31.6556 28.1596 112 116 122 5
266.3096 31.7306 32.4595 112 116 122 5
270.9465 31.3999 13.5104 112 116 122 5
270.5789 31.4692 17.4792 112 116 122 5
270.5396 31.5582 22.5826 112 116 122 5
271.1759 31.6530 28.0120 112 116 122 5
270.9017 31.7397 32.9793 112 116 122 5
275.7826 31.3065 8.1604 112 116 122 5
275.8914 31.4011 13.5794 112 116 122 5
275.6125 31.4718 17.6284 112 116 122 5
276.0036 31.5662 23.0408 112 116 122 5
275.8900 31.6556 28.1611 112 116 122 5
275.5385 31.7389 32.9340 112 116 122 5
280.5581 31.4016 13.6105 112 116 122 5
281.1441 31.4714 17.6064 112 116 122 5
281.2661 31.5587 22.6088 112 116 122 5
281.1029 31.6615 28.4977 112 116 122 5
280.4484 31.7416 33.0869 112 116 122 5
285.9836 31.4893 18.6347 112 116 122 5
285.7583 31.5639 22.9044 112 116 122 5
286.3271 31.6493 27.7991 112 116 122 5
289.3623 0.1666 22.2333 176 164 148 4
289.3493 5.1386 22.3653 176 164 148 4
289.3623 10.1943 22.2333 176 164 148 4
289.3623 15.3363 22.2333 176 164 148 4
289.3518 20.0954 22.3399 176 164 148 4
289.3591 25.2672 22.2657 176 164 148 4
289.3623 29.7896 22.2333 176 164 148 4
289.0898 0.1666 25.0008 176 164 148 4
289.0806 4.6276 25.0311 176 164 148 4
289.0898 10.1908 25.0008 176 164 148 4
289.0898 15.4694 25.0008 176 164 148 4
289.0898 20.5946 25.0008 176 164 148 4
288.9171 25.2467 25.5700 176 164 148 4
289.0142 29.7579 25.2500 176 164 148 4
288.2825 0.1666 27.6618 176 164 148 4
288.2825 5.3984 27.6618 176 164 148 4
288.2825 10.7135 27.6618 176 164 148 4
288.1048 15.0795 27.9943 176 164 148 4
288.2825 20.0303 27.6618 176 164 148 4
288.2825 25.2908 27.6618 176 164 148 4
288.1082 30.0804 27.9879 176 164 148 4
286.6079 0.1666 30.5576 176 164 148 4
286.9717 4.6229 30.1143 176 164 148 4
286.9717 10.0914 30.1143 176 164 148 4
286.6630 15.2364 30.4904 176 164 148 4
286.9717 20.0854 30.1143 176 164 148 4
286.9717 24.6118 30.1143 176 164 148 4
286.9717 29.8442 30.1143 176 164 148 4
284.7900 0.1819 32.6065 176 164 148 4
285.2075 5.1897 32.2639 176 164 148 4
284.9983 10.2473 32.4356 176 164 148 4
285.2075 14.7959 32.2639 176 164 148 4
285.2075 19.6223 32.2639 176 164 148 4
285.2075 24.5745 32.2639 176 164 148 4
285.2075 29.7864 32.2639 176 164 148 4
282.5825 0.6235 34.2821 176 164 148 4
283.0579 5.5216 34.0280 176 164 148 4
282.8297 9.9731 34.1500 176 164 148 4
283.0579 15.1335 34.0280 176 164 148 4
282.7646 19.8813 34.1848 176 164 148 4
283.0579 24.6316 34.0280 176 164 148 4
283.0579 29.6877 34.0280 176 164 148 4
280.5178 0.2040 35.3655 176 164 148 4
280.6055 4.7769 35.3389 176 164 148 4
280.4943 10.4328 35.3726 176 164 148 4
280.6055 14.5969 35.3389 176 164 148 4
280.6055 20.2846 35.3389 176 164 148 4
280.6055 25.3497 35.3389 176 164 148 4
280.6055 29.8139 35.3389 176 164 148 4
277.9444 0.1666 36.1461 176 164 148 4
277.6102 5.4517 36.1790 176 164 148 4
277.9444 10.0976 36.1461 176 164 148 4
277.9444 15.4884 36.1461 176 164 148 4
277.8451 19.7380 36.1559 176 164 148 4
277.9444 25.3285 36.1461 176 164 148 4
277.8312 30.6971 36.1573 176 164 148 4
275.0588 0.3956 36.4071 176 164 148 4
