ply
format ascii 1.0
comment generated by citygen
element vertex 1265
property float x
property float y
property float z
property uchar red
property uchar green
property uchar blue
property int class
end_header
104.1858 -0.2658 118.7699 107 132 85 1
104.6564 -0.1513 126.0393 107 132 85 1
103.7480 -0.0210 132.4589 107 132 85 1
104.5835 0.1299 146.7015 174 174 166 3
105.4602 0.1377 154.9464 107 132 85 1
105.0297 0.0768 168.5288 47 50 54 2
104.2905 -0.0086 182.5509 47 50 54 2
105.0281 0.0213 189.2964 47 50 54 2
105.7664 0.1008 195.5810 47 50 54 2
105.8489 0.2041 203.4702 174 174 166 3
103.9521 0.1663 209.1043 107 132 85 1
104.4237 0.3034 216.9419 107 132 85 1
104.8830 0.4001 223.6986 107 132 85 1
106.0172 0.4800 231.3814 47 50 54 2
105.7005 0.4222 238.4897 174 174 166 3
105.5241 0.0530 259.2350 107 132 85 1
103.9452 -0.0934 267.0165 107 132 85 1
104.7839 -0.2415 279.4282 47 50 54 2
105.8525 -0.2698 287.1530 174 174 166 3
104.3633 -0.2306 292.7861 174 174 166 3
105.7135 -0.2007 300.2980 47 50 54 2
104.0322 -0.0955 307.8331 47 50 54 2
106.0439 -0.1217 315.5279 47 50 54 2
104.7471 -0.0593 321.2587 47 50 54 2
105.2207 -0.1158 329.5315 107 132 85 1
104.5215 -0.1347 336.4730 107 132 85 1
105.4412 -0.3344 350.2091 107 132 85 1
104.9049 -0.3507 357.2331 174 174 166 3
105.7893 -0.3877 363.0021 107 132 85 1
105.9883 -0.2156 377.9612 107 132 85 1
110.9548 0.2471 6.6759 107 132 85 1
113.1134 0.2692 15.2460 107 132 85 1
111.3808 0.1875 20.2836 107 132 85 1
112.3408 0.1821 34.0066 47 50 54 2
111.9434 0.1283 41.4478 174 174 166 3
113.0948 -0.1198 56.1106 107 132 85 1
112.6986 -0.2905 63.6033 107 132 85 1
112.7837 -0.4589 69.9589 107 132 85 1
111.6968 -0.5661 76.7632 47 50 54 2
112.0661 -0.7360 85.0092 107 132 85 1
111.9617 -0.8012 97.4748 107 132 85 1
112.2435 -0.7659 103.8172 107 132 85 1
112.4398 -0.6196 113.1390 107 132 85 1
112.1983 -0.4964 118.5416 107 132 85 1
112.1392 -0.3028 127.0920 107 132 85 1
111.2833 -0.1637 133.0024 107 132 85 1
113.1198 -0.0789 140.8851 47 50 54 2
111.2149 0.0255 147.1034 47 50 54 2
112.6445 0.0388 153.0911 107 132 85 1
112.7498 0.0720 161.2074 174 174 166 3
111.8108 0.0945 166.9286 47 50 54 2
112.6727 0.3392 189.2673 47 50 54 2
112.5343 0.4675 196.4356 174 174 166 3
111.2146 0.5334 203.9025 47 50 54 2
110.8739 0.6278 210.9934 107 132 85 1
112.2228 0.7941 223.5280 107 132 85 1
112.2163 0.7341 231.9785 47 50 54 2
111.7511 0.6361 237.2210 47 50 54 2
111.7888 0.0715 259.7472 107 132 85 1
112.6540 -0.0687 265.8243 174 174 166 3
111.4272 -0.1909 272.2547 174 174 166 3
110.9416 -0.2755 279.4609 47 50 54 2
111.1759 -0.3168 287.7625 47 50 54 2
112.9119 -0.3424 294.9658 47 50 54 2
113.0999 -0.3517 299.8867 174 174 166 3
112.4407 -0.3958 315.9396 107 132 85 1
112.2756 -0.4546 323.1892 107 132 85 1
113.1115 -0.6612 336.5588 107 132 85 1
112.1387 -0.6587 342.5400 107 132 85 1
111.8923 -0.6763 350.4459 107 132 85 1
110.7414 -0.6101 356.0159 107 132 85 1
110.9771 -0.5239 364.8855 107 132 85 1
112.4050 -0.4169 371.1754 107 132 85 1
118.2570 0.5326 6.5214 107 132 85 1
118.2810 0.4827 13.1349 107 132 85 1
119.7084 0.2744 35.6914 47 50 54 2
120.1829 0.1310 41.9616 47 50 54 2
117.8026 -0.0387 48.9904 107 132 85 1
119.9039 -0.3045 55.8706 107 132 85 1
119.7418 -0.5900 64.1750 107 132 85 1
120.0987 -0.7635 69.0039 107 132 85 1
119.5263 -0.9553 76.9882 47 50 54 2
118.8397 -1.0413 83.4965 174 174 166 3
118.6329 -1.0652 97.0665 107 132 85 1
119.8810 -0.8385 112.4583 107 132 85 1
118.8718 -0.6267 120.2572 47 50 54 2
118.3947 -0.4908 125.5319 47 50 54 2
119.6577 -0.1529 146.9556 47 50 54 2
119.9209 -0.0568 155.1267 107 132 85 1
119.9268 0.0126 160.3018 174 174 166 3
120.1226 0.1217 167.0541 47 50 54 2
118.0565 0.3912 181.7668 174 174 166 3
118.7323 0.6026 189.1045 47 50 54 2
117.8497 0.9169 204.0287 47 50 54 2
118.6203 1.0409 209.0860 47 50 54 2
119.9540 1.1579 217.8381 174 174 166 3
119.9376 1.1233 223.3841 47 50 54 2
118.2824 0.9644 230.3411 47 50 54 2
118.8857 0.7762 238.7233 174 174 166 3
118.4340 0.5400 246.1884 107 132 85 1
117.9606 0.3807 250.9907 107 132 85 1
119.3169 0.1422 259.3345 47 50 54 2
119.7140 -0.0529 267.2166 47 50 54 2
119.5922 -0.1645 272.8123 47 50 54 2
119.0680 -0.2837 280.8237 47 50 54 2
119.9131 -0.3424 286.1751 47 50 54 2
118.4713 -0.4611 299.9184 107 132 85 1
119.6049 -0.5878 307.7013 107 132 85 1
120.0156 -0.8711 323.2139 107 132 85 1
117.8569 -0.9362 336.6073 107 132 85 1
118.7774 -1.0161 342.3810 107 132 85 1
119.0560 -0.6995 364.3541 47 50 54 2
118.9887 -0.5217 369.7863 107 132 85 1
117.9547 -0.2035 378.5324 107 132 85 1
127.0723 0.9290 0.9193 107 132 85 1
124.7768 0.6409 20.8077 107 132 85 1
126.1299 0.3289 35.4404 174 174 166 3
125.3438 0.1330 41.1855 47 50 54 2
126.4632 -0.1732 48.5017 107 132 85 1
126.0779 -0.4479 55.0569 107 132 85 1
124.8336 -1.0162 71.1214 107 132 85 1
125.6100 -1.1862 76.7129 47 50 54 2
124.9911 -1.2830 85.0359 107 132 85 1
124.8767 -1.2215 98.9663 107 132 85 1
126.3365 -1.1574 104.6205 47 50 54 2
125.3292 -0.9704 112.3314 174 174 166 3
126.0730 -0.8178 119.7278 174 174 166 3
125.7841 -0.6930 125.0772 47 50 54 2
125.9848 -0.5316 133.5131 174 174 166 3
126.1120 -0.3067 146.5047 47 50 54 2
127.2234 -0.1694 154.3936 174 174 166 3
124.7408 -0.0202 160.0667 174 174 166 3
126.1704 0.2107 168.5914 47 50 54 2
127.0939 0.4234 174.4684 174 174 166 3
125.4515 0.6784 182.9322 47 50 54 2
126.9874 0.9342 188.5232 174 174 166 3
125.9962 1.2779 202.1256 107 132 85 1
126.0975 1.3844 209.6444 47 50 54 2
125.3516 1.3677 215.9748 47 50 54 2
125.2089 1.2824 223.6550 47 50 54 2
124.7705 1.1227 230.5596 174 174 166 3
127.1076 0.9299 238.2276 174 174 166 3
127.1702 0.0727 265.7272 107 132 85 1
124.9380 -0.2639 281.1951 174 174 166 3
125.2205 -0.3525 286.4687 47 50 54 2
126.2899 -0.4825 293.1160 174 174 166 3
125.0912 -0.8000 308.7140 107 132 85 1
125.5007 -0.9847 315.7402 107 132 85 1
126.0629 -1.2747 328.8192 107 132 85 1
126.0960 -1.3397 335.3781 107 132 85 1
125.6877 -1.3066 343.7158 107 132 85 1
124.7775 -1.1907 349.9580 107 132 85 1
125.9813 -1.0221 357.6002 107 132 85 1
126.4096 -0.8145 363.5801 174 174 166 3
126.8108 -0.1675 379.1452 107 132 85 1
132.8310 1.1480 0.0358 107 132 85 1
133.5840 1.1135 7.2201 107 132 85 1
132.5494 0.8311 21.2415 107 132 85 1
132.8378 0.0498 41.5325 47 50 54 2
133.2215 -1.3876 76.9215 47 50 54 2
132.8581 -1.4525 83.2840 174 174 166 3
134.0738 -1.4586 91.7949 47 50 54 2
133.1997 -1.3718 98.8116 47 50 54 2
133.5748 -1.2969 103.8562 47 50 54 2
132.8677 -0.8527 126.6633 174 174 166 3
133.9588 -0.7848 131.9247 47 50 54 2
134.0462 -0.6229 140.0912 47 50 54 2
133.5622 -0.4178 148.1452 47 50 54 2
133.8841 -0.2126 155.0738 47 50 54 2
133.9263 -0.0079 160.7511 47 50 54 2
133.2241 0.3328 169.1981 174 174 166 3
132.5513 0.5268 173.9530 47 50 54 2
134.0142 0.9235 182.0410 174 174 166 3
133.0366 1.1972 189.6547 107 132 85 1
132.4644 1.3896 196.3702 174 174 166 3
133.4016 1.5680 204.1897 47 50 54 2
131.8903 1.5662 209.5861 47 50 54 2
132.3957 1.5477 216.2267 47 50 54 2
132.9896 1.4478 222.8499 174 174 166 3
133.8307 1.0229 237.8382 107 132 85 1
132.8310 0.7799 244.7689 107 132 85 1
133.5249 -0.1620 279.0424 107 132 85 1
134.0518 -0.3770 286.7911 47 50 54 2
131.8084 -0.5955 294.7488 174 174 166 3
132.7833 -0.8535 302.2064 107 132 85 1
134.1637 -1.2979 314.3715 107 132 85 1
132.7246 -1.4670 323.1940 107 132 85 1
132.4196 -1.5437 328.9101 107 132 85 1
133.9202 -1.6142 336.4640 107 132 85 1
131.9704 -1.0890 357.6605 107 132 85 1
134.2567 -0.8472 363.7509 107 132 85 1
134.1340 -0.5458 370.5578 47 50 54 2
132.7509 -0.2249 377.9364 107 132 85 1
141.0623 1.3983 0.9676 107 132 85 1
140.6990 1.3334 6.0368 107 132 85 1
139.2853 1.1316 14.7101 107 132 85 1
139.9445 0.3534 34.1987 107 132 85 1
139.4114 -0.0626 41.9833 107 132 85 1
140.2007 -0.5123 49.9521 107 132 85 1
139.1820 -1.1284 63.7562 107 132 85 1
141.1849 -1.4755 77.7115 47 50 54 2
140.6951 -1.5168 83.8920 174 174 166 3
139.4239 -1.5040 90.4975 174 174 166 3
139.5921 -1.4381 98.2774 47 50 54 2
139.6933 -1.3664 104.1435 47 50 54 2
140.1612 -1.2518 112.8537 47 50 54 2
139.4994 -1.1550 118.5569 174 174 166 3
139.9972 -1.0458 126.1196 107 132 85 1
140.7939 -0.9230 133.5742 174 174 166 3
139.3751 -0.7688 138.9083 47 50 54 2
140.9209 -0.5862 145.9752 47 50 54 2
140.9224 -0.3268 152.8326 47 50 54 2
140.0975 0.0304 160.8299 47 50 54 2
139.5780 0.3516 167.4482 174 174 166 3
139.1676 0.7684 175.8429 47 50 54 2
139.4129 1.1015 182.7653 174 174 166 3
141.1186 1.3879 189.0100 47 50 54 2
140.4101 1.5700 195.7138 47 50 54 2
140.5844 1.6908 203.6273 174 174 166 3
139.5721 1.6030 217.6822 47 50 54 2
140.8251 1.4576 224.5995 47 50 54 2
140.4802 1.3197 229.7426 107 132 85 1
141.2526 1.0474 239.2104 107 132 85 1
140.9999 0.6723 252.2207 107 132 85 1
138.7539 0.4528 258.7786 107 132 85 1
139.2801 0.2380 266.9734 107 132 85 1
139.0062 0.0791 272.3950 107 132 85 1
139.6588 -0.1350 279.3794 107 132 85 1
140.4836 -0.4142 287.0063 174 174 166 3
140.4888 -0.6562 292.9578 47 50 54 2
141.2081 -1.0388 301.6464 107 132 85 1
140.4536 -1.2532 307.3908 107 132 85 1
138.8403 -1.4567 314.5439 107 132 85 1
140.8999 -1.6843 321.4246 107 132 85 1
140.2403 -1.7309 336.3864 107 132 85 1
139.9523 -1.6103 343.0354 107 132 85 1
141.1539 -1.3913 350.4008 107 132 85 1
141.1523 -1.0864 358.2245 107 132 85 1
141.0317 -0.8117 364.6712 107 132 85 1
139.8242 -0.5392 370.9940 47 50 54 2
140.8641 -0.2451 378.4419 107 132 85 1
147.5050 1.2080 14.9682 107 132 85 1
147.5876 0.2115 35.2363 107 132 85 1
145.8046 -0.0963 40.9766 107 132 85 1
146.8374 -1.3554 70.8156 107 132 85 1
148.1639 -1.4410 77.5524 47 50 54 2
147.2387 -1.4901 84.2369 174 174 166 3
145.8303 -1.4940 91.7776 174 174 166 3
146.0403 -1.4555 99.0660 47 50 54 2
146.9748 -1.4263 103.9334 174 174 166 3
147.4370 -1.3672 112.3273 174 174 166 3
147.4168 -1.2861 120.2120 47 50 54 2
147.2128 -1.2014 125.8269 47 50 54 2
147.0509 -1.0555 132.8841 47 50 54 2
147.4384 -0.8150 141.1775 174 174 166 3
146.7374 -0.5348 148.2018 47 50 54 2
147.0216 -0.2884 153.4605 47 50 54 2
146.1232 0.0362 159.8462 47 50 54 2
146.0658 0.4379 167.1649 47 50 54 2
147.3836 0.8341 174.0879 47 50 54 2
146.2820 1.1562 181.0544 47 50 54 2
147.4718 1.4386 188.0556 47 50 54 2
146.9672 1.6401 196.4885 107 132 85 1
147.2575 1.7040 203.9637 107 132 85 1
145.7984 1.6938 209.9265 107 132 85 1
147.5316 1.6071 216.0422 107 132 85 1
147.5199 1.4413 224.6588 47 50 54 2
146.9253 1.3141 230.2108 107 132 85 1
147.5404 1.1250 238.0142 174 174 166 3
146.2745 0.7611 252.0695 107 132 85 1
147.5865 0.6184 258.2476 107 132 85 1
146.6117 0.3602 266.4734 107 132 85 1
146.5987 -0.1251 279.5540 107 132 85 1
147.7172 -0.8648 295.2071 47 50 54 2
146.9699 -1.1087 300.6339 107 132 85 1
148.0116 -1.7905 321.7495 107 132 85 1
147.6458 -1.7547 335.9078 107 132 85 1
146.3945 -1.5697 344.2271 107 132 85 1
148.0284 -1.0618 358.1136 107 132 85 1
146.0100 -0.8321 364.0870 107 132 85 1
146.1062 -0.5173 372.1479 47 50 54 2
147.7911 -0.3403 377.4535 47 50 54 2
154.2723 1.5872 0.9578 107 132 85 1
154.8903 1.2339 13.4525 107 132 85 1
153.1910 0.8777 21.7796 107 132 85 1
154.0330 0.1798 34.2625 107 132 85 1
153.8285 -0.2189 41.4660 47 50 54 2
152.7669 -0.6136 49.4021 47 50 54 2
154.5995 -0.8922 56.2769 47 50 54 2
153.4324 -1.1107 62.9409 47 50 54 2
153.8555 -1.2510 69.5661 47 50 54 2
153.7777 -1.3537 76.9295 47 50 54 2
154.2511 -1.4264 89.7922 174 174 166 3
154.5210 -1.4454 97.8261 47 50 54 2
153.6769 -1.4506 104.3827 107 132 85 1
155.1369 -1.2903 126.0873 107 132 85 1
154.4847 -1.1095 133.3520 174 174 166 3
152.8997 -0.8437 140.9080 47 50 54 2
153.5964 -0.5132 148.1592 47 50 54 2
154.5698 -0.2150 153.6207 47 50 54 2
153.8219 0.1536 160.2906 47 50 54 2
154.4783 0.5820 167.7258 47 50 54 2
154.6563 0.9733 175.3869 47 50 54 2
154.7436 1.2218 181.3346 47 50 54 2
154.7744 1.4798 190.2486 47 50 54 2
154.5517 1.5716 195.8393 47 50 54 2
153.6668 1.6258 202.8606 47 50 54 2
153.4069 1.6026 209.6731 47 50 54 2
155.0036 1.5065 215.9309 47 50 54 2
153.2151 1.4315 222.7536 47 50 54 2
154.0872 1.3003 229.9462 47 50 54 2
154.5589 1.1713 237.2357 47 50 54 2
152.9323 0.9951 245.7587 47 50 54 2
153.5792 0.8416 252.8064 47 50 54 2
155.1867 0.6726 259.5395 47 50 54 2
152.8119 0.4701 265.1059 47 50 54 2
154.5630 0.2161 271.8014 107 132 85 1
153.9010 -0.1176 279.0536 107 132 85 1
154.0156 -0.5079 286.7231 107 132 85 1
154.3706 -0.9291 294.8238 47 50 54 2
155.0228 -1.1757 299.8593 47 50 54 2
154.6996 -1.4965 307.9948 107 132 85 1
154.4980 -1.6670 314.1456 107 132 85 1
154.9233 -1.7580 328.7454 107 132 85 1
153.1254 -1.5321 342.5493 107 132 85 1
153.4307 -1.3006 349.9411 107 132 85 1
153.4458 -1.0362 357.7571 107 132 85 1
154.0853 -0.8403 363.4905 107 132 85 1
152.8078 -0.3578 378.5427 47 50 54 2
162.0112 1.3649 6.8242 107 132 85 1
160.3803 0.4670 27.2505 107 132 85 1
159.9530 0.1259 33.7844 107 132 85 1
161.1453 -0.2642 41.4864 174 174 166 3
161.4581 -0.5926 49.5692 174 174 166 3
159.7735 -0.8065 55.3921 47 50 54 2
161.5579 -0.9830 63.8777 174 174 166 3
161.2362 -1.1052 70.4806 174 174 166 3
160.2207 -1.2147 76.7941 47 50 54 2
160.8605 -1.2865 84.8689 174 174 166 3
160.2738 -1.3458 90.0959 174 174 166 3
159.7982 -1.4092 97.4587 47 50 54 2
160.4897 -1.4423 103.8466 174 174 166 3
161.9944 -1.4516 111.9404 47 50 54 2
160.6023 -1.4189 118.1578 47 50 54 2
160.0687 -1.3106 125.4298 47 50 54 2
160.3243 -1.1234 132.4632 47 50 54 2
160.8889 -0.8346 139.8470 47 50 54 2
160.6413 -0.5410 146.0677 47 50 54 2
161.6404 -0.1216 153.5919 47 50 54 2
160.9397 0.2321 160.1363 47 50 54 2
160.2379 0.6315 167.8120 47 50 54 2
161.3307 0.9790 175.6799 47 50 54 2
162.2525 1.1783 182.2155 174 174 166 3
161.5545 1.3393 189.1449 174 174 166 3
162.0364 1.4035 196.3584 174 174 166 3
159.9508 1.4787 203.9055 47 50 54 2
159.8242 1.4590 209.6118 174 174 166 3
159.9930 1.3999 216.7486 174 174 166 3
159.9586 1.3394 223.0579 47 50 54 2
160.5139 1.2413 231.7717 107 132 85 1
160.4815 0.9161 251.8938 174 174 166 3
160.8184 0.6844 259.9728 174 174 166 3
159.7711 0.4134 267.1497 107 132 85 1
161.6537 -0.2633 280.9038 107 132 85 1
160.4747 -0.9435 294.2346 47 50 54 2
161.8320 -1.2577 301.5675 47 50 54 2
160.5034 -1.4618 307.5195 107 132 85 1
162.2058 -1.5743 314.2179 107 132 85 1
162.2113 -1.5611 329.9635 107 132 85 1
160.4814 -1.3659 342.6988 107 132 85 1
160.1253 -1.1592 350.9748 107 132 85 1
160.8298 -0.4732 377.3754 47 50 54 2
168.4540 1.3837 0.5499 107 132 85 1
168.1431 1.1993 6.9519 107 132 85 1
167.2756 0.9001 15.1165 107 132 85 1
169.0260 0.6307 20.0182 107 132 85 1
167.4790 0.0156 34.4296 107 132 85 1
166.7647 -0.3028 42.6029 107 132 85 1
168.3513 -0.5017 49.6321 107 132 85 1
169.2442 -0.7534 62.7639 107 132 85 1
168.1184 -0.8979 69.6189 107 132 85 1
169.0144 -0.9745 76.3032 47 50 54 2
168.5585 -1.1112 84.2299 47 50 54 2
168.9679 -1.2242 91.9888 47 50 54 2
166.8710 -1.3487 98.9330 47 50 54 2
169.1027 -1.3689 104.2470 174 174 166 3
167.5642 -1.4097 111.8467 47 50 54 2
167.9555 -1.3620 118.0416 174 174 166 3
168.7784 -1.1788 126.6989 174 174 166 3
167.4922 -0.9798 133.6358 174 174 166 3
167.8462 -0.7599 138.7883 174 174 166 3
168.9667 -0.2922 148.0255 47 50 54 2
167.9864 0.0145 154.4095 47 50 54 2
166.8294 0.3159 160.7108 47 50 54 2
168.5967 0.6153 167.5225 47 50 54 2
168.0212 0.8653 174.6466 47 50 54 2
166.9475 1.0755 182.1121 47 50 54 2
166.9298 1.1704 187.7695 47 50 54 2
169.1965 1.1584 196.1898 174 174 166 3
168.7711 1.1948 216.2578 107 132 85 1
169.0146 1.1858 223.6363 47 50 54 2
167.8127 1.1814 231.7526 107 132 85 1
168.4951 1.1377 237.4521 107 132 85 1
167.9502 1.0443 245.2712 107 132 85 1
167.8741 0.9214 251.2658 107 132 85 1
169.1443 0.4162 265.6071 107 132 85 1
167.9997 0.1252 272.1759 107 132 85 1
169.2198 -0.2562 279.5661 107 132 85 1
166.8677 -0.9309 293.9660 174 174 166 3
168.0296 -1.1794 301.2192 47 50 54 2
167.2640 -1.4539 321.1753 107 132 85 1
167.2207 -1.3931 329.1223 107 132 85 1
168.5667 -1.2575 335.1622 107 132 85 1
167.9035 -1.1694 341.9667 107 132 85 1
168.7755 -1.0031 350.5353 107 132 85 1
168.5392 -0.8984 357.3305 107 132 85 1
167.9947 -0.7862 364.3088 107 132 85 1
168.8225 -0.5193 377.5269 174 174 166 3
174.3543 0.9819 6.7266 107 132 85 1
173.8007 0.7626 13.3072 107 132 85 1
176.0858 0.1987 26.9610 107 132 85 1
176.0059 -0.2207 42.9068 107 132 85 1
174.2283 -0.3876 49.8152 107 132 85 1
175.3420 -0.5581 62.2810 107 132 85 1
174.6834 -0.6865 69.0814 107 132 85 1
175.3753 -0.8028 76.8510 47 50 54 2
173.7844 -0.9718 83.4926 107 132 85 1
175.4751 -1.0652 90.5374 107 132 85 1
175.7929 -1.1803 98.0629 47 50 54 2
174.9424 -1.2710 105.7838 107 132 85 1
176.2250 -1.2285 113.1765 107 132 85 1
174.0196 -1.0971 124.8355 174 174 166 3
173.9497 -0.8342 133.0934 47 50 54 2
175.4300 -0.5239 139.6808 47 50 54 2
175.9006 -0.1750 147.5282 47 50 54 2
173.7743 0.1072 154.8938 47 50 54 2
175.1407 0.3682 161.5752 47 50 54 2
174.0800 0.6020 168.8967 47 50 54 2
174.9872 0.7291 175.4608 47 50 54 2
175.0721 0.8300 182.8248 174 174 166 3
174.9511 0.8796 187.8331 174 174 166 3
176.2027 0.8776 196.5623 47 50 54 2
176.0620 0.9217 204.0413 47 50 54 2
175.1113 0.9846 209.2686 47 50 54 2
174.5024 1.0473 217.4457 174 174 166 3
175.9725 1.0420 223.4632 47 50 54 2
175.8734 1.0627 232.0787 107 132 85 1
174.3525 1.0623 238.1498 107 132 85 1
175.1865 0.8315 251.2186 107 132 85 1
176.1574 0.0265 272.0675 107 132 85 1
174.9626 -0.3415 280.5582 107 132 85 1
174.9083 -0.8779 295.0486 107 132 85 1
175.4233 -0.9933 300.4747 47 50 54 2
176.2230 -1.0556 307.1813 47 50 54 2
174.5242 -1.1598 316.0393 107 132 85 1
175.9673 -1.0729 321.3229 107 132 85 1
174.0933 -1.1121 328.0203 107 132 85 1
174.7608 -0.8882 349.1921 107 132 85 1
174.6329 -0.7433 364.7928 107 132 85 1
176.0557 -0.6642 369.8365 107 132 85 1
181.5311 0.4647 13.7567 107 132 85 1
181.8166 0.0943 28.2699 107 132 85 1
182.6578 -0.0152 34.5940 107 132 85 1
181.1813 -0.1191 41.2421 107 132 85 1
181.2699 -0.1996 48.0707 107 132 85 1
182.8585 -0.2538 56.7523 107 132 85 1
182.4259 -0.4469 68.9278 107 132 85 1
182.8935 -0.5787 76.3252 47 50 54 2
180.8897 -1.0426 97.6102 47 50 54 2
182.2874 -1.0556 105.8673 174 174 166 3
182.0260 -1.0498 110.9585 174 174 166 3
181.3340 -0.9578 119.7068 47 50 54 2
182.2511 -0.7832 125.3763 47 50 54 2
182.5727 -0.4974 134.1422 174 174 166 3
182.4293 -0.2996 140.0381 174 174 166 3
182.6806 -0.0487 147.3853 47 50 54 2
182.7918 0.1349 153.6940 47 50 54 2
183.0367 0.3176 162.1235 174 174 166 3
180.8637 0.4711 169.1387 47 50 54 2
182.4741 0.4828 174.3083 174 174 166 3
180.9896 0.5912 181.7195 47 50 54 2
181.4980 0.6141 189.8021 107 132 85 1
181.8403 0.6301 195.1394 107 132 85 1
182.9129 0.6511 203.1900 174 174 166 3
182.6611 0.7213 208.9866 174 174 166 3
181.5410 0.8559 218.0855 47 50 54 2
182.7983 0.8791 224.9564 47 50 54 2
181.5488 0.9362 231.2700 174 174 166 3
182.7663 0.8712 238.8725 174 174 166 3
180.7797 0.8558 244.2505 107 132 85 1
181.2039 0.6486 252.8651 107 132 85 1
180.7619 0.4786 258.6005 107 132 85 1
181.3509 0.1450 267.1798 107 132 85 1
181.9431 -0.1107 273.5963 107 132 85 1
180.8095 -0.7263 294.2721 107 132 85 1
182.5969 -0.7437 300.1386 174 174 166 3
182.7291 -0.7682 308.5826 47 50 54 2
182.7215 -0.7528 315.9051 107 132 85 1
183.0171 -0.7102 322.5091 107 132 85 1
181.3485 -0.7289 350.0924 107 132 85 1
189.4136 0.4374 0.0000 107 132 85 1
189.8972 0.2797 6.8743 107 132 85 1
188.6947 0.2245 12.8469 107 132 85 1
189.4190 0.0398 29.0762 174 174 166 3
189.3911 -0.0171 48.6214 107 132 85 1
188.0338 -0.1127 56.9584 107 132 85 1
189.4780 -0.2587 69.5090 107 132 85 1
190.2531 -0.3641 75.9171 47 50 54 2
188.3725 -0.5949 84.5375 107 132 85 1
188.9377 -0.7710 98.5629 47 50 54 2
188.9872 -0.7815 105.0438 47 50 54 2
188.7741 -0.7470 111.4942 47 50 54 2
190.2270 -0.5740 117.9276 174 174 166 3
188.5826 -0.4627 126.6428 107 132 85 1
188.6090 -0.2946 133.0232 107 132 85 1
189.1584 -0.1182 139.2131 47 50 54 2
189.5261 0.0698 148.0807 174 174 166 3
188.3842 0.1357 152.7921 47 50 54 2
189.5222 0.2030 160.0917 174 174 166 3
188.5838 0.2595 168.8560 47 50 54 2
189.5233 0.2353 175.6230 174 174 166 3
189.3156 0.2501 182.3503 174 174 166 3
188.7796 0.2933 188.4165 47 50 54 2
189.1187 0.4162 203.2662 107 132 85 1
189.5730 0.4997 210.4585 174 174 166 3
189.3507 0.5903 216.5327 47 50 54 2
188.4701 0.6993 224.2693 174 174 166 3
187.9313 0.7424 232.2484 47 50 54 2
188.9402 0.6812 237.2618 47 50 54 2
189.1542 0.5909 243.7832 47 50 54 2
189.8976 0.1767 260.0202 107 132 85 1
189.2800 -0.0097 267.1902 107 132 85 1
189.5457 -0.1515 272.4860 107 132 85 1
189.1972 -0.4106 287.0417 107 132 85 1
188.7889 -0.4708 293.6884 107 132 85 1
189.0232 -0.4704 300.1329 107 132 85 1
187.9147 -0.5030 308.6977 47 50 54 2
189.0679 -0.4202 314.0464 174 174 166 3
189.8806 -0.3589 321.2735 107 132 85 1
189.6224 -0.3808 328.9961 107 132 85 1
188.8223 -0.5389 350.3130 107 132 85 1
188.8276 -0.5604 356.7260 107 132 85 1
196.2088 -0.0026 7.4280 174 174 166 3
197.2283 -0.0573 13.7344 47 50 54 2
195.5237 -0.0073 21.3407 47 50 54 2
195.3241 0.0214 27.7165 47 50 54 2
195.9081 0.0837 55.5600 107 132 85 1
196.4983 0.0315 61.9727 107 132 85 1
195.0093 -0.2602 77.5182 47 50 54 2
196.6310 -0.3092 83.7668 174 174 166 3
196.6885 -0.3802 90.2895 174 174 166 3
196.0869 -0.4430 98.9192 47 50 54 2
196.8425 -0.3733 105.3935 47 50 54 2
197.1941 -0.2682 112.7946 47 50 54 2
195.6184 -0.2576 119.1458 107 132 85 1
194.9038 -0.1735 125.7714 107 132 85 1
196.6463 0.0235 133.0387 47 50 54 2
195.8264 0.0868 141.0289 47 50 54 2
194.8453 0.1083 146.1749 107 132 85 1
197.0961 0.1077 155.1795 47 50 54 2
197.1200 0.0742 160.0054 174 174 166 3
195.3933 0.0570 168.3078 47 50 54 2
195.3076 0.0257 174.7245 47 50 54 2
195.8363 -0.0089 181.0490 107 132 85 1
195.5210 0.0250 188.9013 47 50 54 2
196.5396 0.0427 195.3877 47 50 54 2
196.1245 0.1455 202.2627 174 174 166 3
196.3681 0.2483 209.9002 47 50 54 2
196.8177 0.3235 217.0748 47 50 54 2
194.9607 0.4597 224.8060 107 132 85 1
195.8410 0.3824 238.0832 174 174 166 3
195.3991 0.3277 243.7975 47 50 54 2
195.7732 0.1486 252.7337 107 132 85 1
196.1612 -0.1972 273.3741 107 132 85 1
195.7886 -0.1393 301.6693 107 132 85 1
195.0791 -0.1305 307.8017 47 50 54 2
196.7865 -0.0127 314.7373 174 174 166 3
194.8115 -0.1123 321.1193 107 132 85 1
196.8095 -0.0594 328.1306 107 132 85 1
196.2843 -0.1684 336.5718 107 132 85 1
196.0774 -0.2650 344.2151 107 132 85 1
195.4849 -0.3406 350.0340 107 132 85 1
195.7221 -0.3687 356.6159 107 132 85 1
196.7159 -0.2585 371.5972 107 132 85 1
203.1690 -0.2853 0.1309 47 50 54 2
202.6588 -0.2478 7.7692 47 50 54 2
202.5760 -0.2006 13.3300 47 50 54 2
202.3612 -0.1071 20.4680 47 50 54 2
202.9341 0.1134 35.3035 107 132 85 1
203.5673 0.2235 49.4796 107 132 85 1
204.0043 0.1660 62.7878 107 132 85 1
202.1213 0.0393 70.6391 107 132 85 1
204.1667 0.0277 76.8000 47 50 54 2
202.6930 -0.0745 82.8880 174 174 166 3
202.2198 -0.1300 90.6140 47 50 54 2
202.1249 -0.1245 97.2760 47 50 54 2
202.7809 -0.0184 105.6946 174 174 166 3
202.5519 0.0319 111.1255 47 50 54 2
203.4040 0.1820 119.3861 174 174 166 3
202.0084 0.1781 126.3863 174 174 166 3
203.8189 0.2742 132.7865 47 50 54 2
202.6348 0.2161 140.7693 107 132 85 1
204.2502 0.1442 148.2382 174 174 166 3
201.8132 0.0630 154.6407 47 50 54 2
201.9817 -0.0181 159.9820 174 174 166 3
202.7671 -0.1410 167.2077 174 174 166 3
202.7523 -0.2294 176.0488 47 50 54 2
202.2185 -0.2315 181.2405 107 132 85 1
204.0904 -0.2616 190.1325 107 132 85 1
204.0068 -0.2080 195.7719 174 174 166 3
201.9557 -0.0443 203.4908 47 50 54 2
203.6565 -0.0315 209.5656 47 50 54 2
203.6559 0.0604 222.8254 107 132 85 1
201.9567 0.1332 231.1856 107 132 85 1
204.1308 -0.1625 251.1052 107 132 85 1
201.9721 -0.1505 258.2062 107 132 85 1
201.8977 -0.1910 265.1124 107 132 85 1
202.3824 -0.1898 271.9360 107 132 85 1
202.6710 -0.1269 279.3263 107 132 85 1
203.0978 -0.0260 285.8875 107 132 85 1
202.7668 0.1083 295.1823 107 132 85 1
203.7665 0.2226 300.1108 107 132 85 1
202.9652 0.2642 308.1984 47 50 54 2
203.4578 0.3028 315.6735 47 50 54 2
204.1238 0.3020 321.6278 107 132 85 1
202.8203 0.0897 335.3671 107 132 85 1
201.9652 -0.0385 342.5040 107 132 85 1
202.1786 -0.1472 357.2511 107 132 85 1
202.2772 -0.0746 372.0587 107 132 85 1
210.5041 -0.6035 0.0000 174 174 166 3
209.3971 0.2229 42.3719 107 132 85 1
209.2705 0.2711 49.9730 107 132 85 1
211.0515 0.2592 70.5115 107 132 85 1
208.8397 0.1793 77.2160 47 50 54 2
208.7945 0.1746 82.8115 174 174 166 3
209.2752 0.3626 103.7807 107 132 85 1
210.6792 0.5358 112.7578 174 174 166 3
211.1270 0.5844 118.8851 47 50 54 2
209.6828 0.5093 125.0502 47 50 54 2
209.6187 0.4442 132.6032 174 174 166 3
210.4796 0.1659 146.8847 174 174 166 3
209.1215 -0.0246 154.7432 47 50 54 2
209.3465 -0.3071 167.7759 107 132 85 1
209.9244 -0.4003 173.7636 47 50 54 2
210.3816 -0.4584 182.2808 174 174 166 3
210.6333 -0.4568 187.9143 174 174 166 3
210.9345 -0.4162 196.2955 47 50 54 2
210.3662 -0.3494 202.5906 47 50 54 2
209.3597 -0.2549 210.5058 47 50 54 2
211.1917 -0.3187 217.8418 174 174 166 3
210.1527 -0.2731 223.4857 107 132 85 1
210.4087 -0.3148 229.8953 107 132 85 1
208.8521 -0.2820 238.0682 107 132 85 1
210.4656 -0.3960 243.8378 107 132 85 1
210.3195 0.2494 287.8231 107 132 85 1
208.8858 0.4639 301.7581 107 132 85 1
209.4223 0.5421 308.2965 174 174 166 3
210.8295 0.5962 315.6313 47 50 54 2
210.2215 0.4636 327.8124 107 132 85 1
208.8053 0.2999 336.1261 107 132 85 1
210.4455 0.2826 342.5779 107 132 85 1
209.9707 0.1993 349.9502 107 132 85 1
210.6094 0.1985 362.9901 107 132 85 1
210.2449 0.2121 379.2529 107 132 85 1
218.0523 -0.8577 0.0000 107 132 85 1
216.6350 -0.4545 14.1385 107 132 85 1
217.5013 -0.2457 21.5477 107 132 85 1
215.8677 -0.0251 29.2039 107 132 85 1
216.8610 0.0842 34.4892 107 132 85 1
216.0568 0.2781 48.3512 107 132 85 1
217.0163 0.3309 56.2819 107 132 85 1
217.0662 0.4193 71.0986 107 132 85 1
216.9180 0.4729 77.3772 47 50 54 2
216.7663 0.5625 85.1768 107 132 85 1
215.8630 0.5920 90.6926 107 132 85 1
216.6589 0.8166 104.5714 107 132 85 1
217.2222 0.8671 117.8155 47 50 54 2
217.0722 0.7752 124.8676 47 50 54 2
215.7758 0.5971 131.9409 47 50 54 2
217.6270 0.3515 141.0435 47 50 54 2
217.3272 0.1761 146.1688 174 174 166 3
217.2518 -0.0634 153.3269 47 50 54 2
215.8625 -0.4413 168.8770 107 132 85 1
216.1368 -0.5260 174.7489 47 50 54 2
215.9324 -0.5740 182.7865 47 50 54 2
218.0501 -0.6231 189.4499 47 50 54 2
217.7177 -0.6118 196.4392 174 174 166 3
218.2237 -0.6458 211.0788 47 50 54 2
215.9990 -0.5594 216.8583 47 50 54 2
217.5035 -0.7063 229.7724 107 132 85 1
216.5649 -0.6792 237.3309 47 50 54 2
216.0194 -0.6413 244.4865 107 132 85 1
217.9027 -0.6138 252.4651 107 132 85 1
217.1318 -0.4580 259.1521 107 132 85 1
216.8189 -0.2592 266.2763 107 132 85 1
217.5104 0.6278 293.9429 107 132 85 1
217.4098 0.8089 314.9085 47 50 54 2
216.4508 0.7450 320.7545 174 174 166 3
215.7832 0.6479 328.3129 107 132 85 1
216.6113 0.5249 343.9854 107 132 85 1
216.0181 0.4662 349.6047 107 132 85 1
216.5330 0.4629 357.8956 107 132 85 1
217.8766 0.5086 362.8586 107 132 85 1
217.2403 0.4436 371.2361 107 132 85 1
218.2459 0.4169 376.8133 107 132 85 1
225.0042 -0.8117 7.0044 107 132 85 1
224.9319 -0.3305 21.7947 107 132 85 1
222.9548 0.1735 42.5329 107 132 85 1
222.8813 0.3479 55.1591 107 132 85 1
224.6179 0.6171 70.1724 107 132 85 1
223.4700 0.7102 76.5629 47 50 54 2
222.7971 0.8238 83.4320 174 174 166 3
224.6533 1.0703 91.0128 107 132 85 1
223.8214 1.1941 104.2244 107 132 85 1
223.0366 1.1577 110.8767 174 174 166 3
223.7863 1.0918 118.6734 47 50 54 2
224.8262 0.6995 132.7341 174 174 166 3
224.1460 0.3644 141.1836 47 50 54 2
224.4012 0.1091 147.6417 47 50 54 2
223.6573 -0.1161 153.8645 47 50 54 2
222.9461 -0.3444 161.4623 47 50 54 2
224.2224 -0.5180 168.9144 47 50 54 2
223.0931 -0.6039 174.8046 47 50 54 2
224.0261 -0.6939 182.7729 47 50 54 2
224.4668 -0.7480 189.0614 107 132 85 1
224.7820 -0.8107 196.5191 107 132 85 1
223.0055 -0.8072 203.7991 107 132 85 1
224.7107 -0.9423 211.0013 107 132 85 1
224.1494 -0.9758 217.2196 47 50 54 2
225.1099 -1.0735 223.5197 47 50 54 2
223.6365 -1.0246 230.0969 47 50 54 2
222.8573 -0.9714 237.2109 47 50 54 2
224.9981 -0.1797 267.1214 107 132 85 1
224.5899 0.0411 272.3081 107 132 85 1
223.7116 0.9108 301.7065 107 132 85 1
223.5650 0.9524 307.0329 107 132 85 1
225.1601 0.9966 315.2274 47 50 54 2
223.3745 0.9290 322.3508 47 50 54 2
223.4436 0.8876 329.7599 107 132 85 1
223.9403 0.8703 336.4915 107 132 85 1
223.4273 0.8264 342.2347 107 132 85 1
224.8069 0.8658 349.0102 107 132 85 1
224.8050 0.8261 357.9051 107 132 85 1
225.2511 0.5053 378.2716 107 132 85 1
230.4911 -0.4053 22.1132 107 132 85 1
230.4852 -0.0536 35.7501 107 132 85 1
231.4692 0.0630 41.5762 107 132 85 1
230.6257 0.2438 49.3908 47 50 54 2
231.1705 0.4106 56.3461 47 50 54 2
230.8720 0.5985 63.4641 47 50 54 2
231.9637 0.8169 69.8824 47 50 54 2
231.1095 0.9995 76.6299 47 50 54 2
230.9713 1.1832 83.1522 47 50 54 2
231.0111 1.3544 90.1987 47 50 54 2
231.0696 1.4664 97.3839 47 50 54 2
232.0624 1.5212 104.6918 47 50 54 2
230.2228 1.3987 111.5468 47 50 54 2
232.2456 1.2841 118.4105 174 174 166 3
230.0809 0.3806 141.0702 107 132 85 1
231.5643 0.1161 147.6006 47 50 54 2
230.1886 -0.1282 154.1772 47 50 54 2
231.4879 -0.3525 161.7592 107 132 85 1
231.0712 -0.5183 168.6655 107 132 85 1
230.4243 -0.7675 183.2325 47 50 54 2
232.1383 -0.9020 190.2033 174 174 166 3
232.0415 -1.0132 196.6434 107 132 85 1
230.5070 -1.0899 204.0097 107 132 85 1
231.8310 -1.2474 210.5414 107 132 85 1
231.1387 -1.3068 217.2706 107 132 85 1
231.2026 -1.3559 223.5153 47 50 54 2
230.1255 -1.3058 230.8586 47 50 54 2
230.3946 -1.2374 237.6077 47 50 54 2
230.8341 -1.0947 244.1954 47 50 54 2
232.1877 1.0920 308.9835 107 132 85 1
231.7885 1.1144 314.2000 107 132 85 1
231.7883 1.1366 321.6127 47 50 54 2
231.3521 1.1383 328.2244 107 132 85 1
231.8074 1.1676 336.1443 107 132 85 1
230.3094 1.0608 355.8823 107 132 85 1
229.9823 0.5806 377.2718 107 132 85 1
237.0699 -1.1893 0.0000 174 174 166 3
237.7658 -0.7775 13.5839 107 132 85 1
238.2566 -0.5726 20.9794 107 132 85 1
238.1886 -0.2005 34.8755 107 132 85 1
237.6544 0.0173 42.5296 107 132 85 1
239.1341 0.2229 49.3901 174 174 166 3
239.1997 0.4279 55.1182 174 174 166 3
238.3671 0.6994 62.4629 174 174 166 3
239.1337 1.0161 69.9863 174 174 166 3
237.2847 1.1839 75.8198 47 50 54 2
238.4430 1.4868 84.0924 174 174 166 3
239.1475 1.6528 90.6864 174 174 166 3
238.3174 1.7008 98.6313 174 174 166 3
236.8975 1.6416 104.8686 47 50 54 2
238.5670 1.5486 111.4974 174 174 166 3
236.9057 1.0550 125.7855 107 132 85 1
236.8854 0.1566 147.1818 47 50 54 2
238.3417 -0.0742 154.0746 174 174 166 3
237.8076 -0.8132 182.4014 47 50 54 2
237.6974 -0.9791 189.2654 47 50 54 2
239.0381 -1.5270 211.0406 107 132 85 1
236.7827 -1.5406 218.1315 47 50 54 2
238.8507 -1.6200 225.0939 174 174 166 3
237.7042 -1.5459 230.1532 47 50 54 2
236.8265 -1.3769 237.7533 47 50 54 2
237.6182 -1.1860 243.9108 47 50 54 2
238.3392 -0.8769 251.1321 107 132 85 1
237.4996 -0.4394 259.9801 107 132 85 1
238.4730 0.2045 272.8849 107 132 85 1
237.0387 1.0454 301.6359 107 132 85 1
238.4352 1.1237 307.2075 107 132 85 1
238.2393 1.2011 314.2739 107 132 85 1
237.8647 1.2800 323.2315 47 50 54 2
237.6336 1.3266 329.5541 174 174 166 3
237.3570 1.3575 335.5333 107 132 85 1
238.8978 1.4315 343.4244 107 132 85 1
238.6059 1.3960 349.9013 107 132 85 1
238.6728 1.3015 357.0783 107 132 85 1
237.6719 0.8561 371.4014 107 132 85 1
237.3035 0.5741 377.7447 107 132 85 1
244.7184 -1.2215 0.5888 47 50 54 2
246.1295 -1.0589 7.2520 107 132 85 1
245.4389 -0.4814 29.1124 107 132 85 1
244.5091 -0.0746 41.5493 107 132 85 1
244.7862 0.1633 47.8299 107 132 85 1
244.4532 0.8735 63.9412 107 132 85 1
246.2499 1.4270 76.0421 47 50 54 2
245.7936 1.6402 83.0259 174 174 166 3
246.0358 1.7977 92.0902 107 132 85 1
244.3408 1.7964 97.2146 107 132 85 1
244.0359 1.7386 103.7708 107 132 85 1
245.6939 0.4778 140.3079 107 132 85 1
244.2124 0.2578 146.0399 47 50 54 2
244.8512 -0.0039 154.1850 174 174 166 3
244.8238 -0.2404 162.0324 107 132 85 1
245.8563 -0.3814 167.1541 107 132 85 1
243.8853 -0.8257 181.4385 174 174 166 3
244.7367 -1.0973 189.5047 47 50 54 2
244.9779 -1.6424 230.6432 47 50 54 2
243.9520 -1.4481 237.3513 47 50 54 2
245.1520 -1.1134 245.5153 47 50 54 2
245.7701 -0.4787 258.1733 107 132 85 1
243.8545 -0.1097 265.7602 107 132 85 1
244.5197 0.1950 272.4166 107 132 85 1
244.4971 1.0497 302.1873 107 132 85 1
244.6932 1.1691 308.7131 107 132 85 1
243.7858 1.3736 321.4932 47 50 54 2
244.7416 1.4864 327.9050 47 50 54 2
245.1527 1.5878 336.6276 107 132 85 1
245.0316 1.6021 341.7601 107 132 85 1
245.8772 1.5786 348.7710 107 132 85 1
245.2404 1.4034 357.3083 107 132 85 1
246.2167 0.8765 370.7928 107 132 85 1
244.5849 0.4631 378.8872 107 132 85 1
252.3179 -1.2399 0.8472 47 50 54 2
251.9332 -1.0923 8.0785 107 132 85 1
253.2449 -0.9565 15.1334 107 132 85 1
252.2052 -0.7851 21.7643 107 132 85 1
251.6698 -0.4019 34.0802 107 132 85 1
250.7538 0.1897 48.1023 107 132 85 1
251.2257 0.5813 55.9368 107 132 85 1
252.4573 1.2464 69.1972 107 132 85 1
252.7110 1.5364 76.6304 47 50 54 2
252.6662 1.7432 84.9964 107 132 85 1
251.2797 1.7807 99.1263 107 132 85 1
252.1228 1.6585 105.5936 107 132 85 1
251.5549 1.4943 112.0627 107 132 85 1
252.0760 1.2571 119.1235 107 132 85 1
252.4841 0.9688 127.2433 107 132 85 1
252.7178 0.7476 133.6631 107 132 85 1
252.0063 0.5138 140.6482 107 132 85 1
252.2164 0.3255 146.7021 47 50 54 2
250.8574 -0.1393 161.1147 107 132 85 1
251.9568 -0.3214 166.9166 107 132 85 1
253.0183 -0.6197 175.0660 107 132 85 1
252.5915 -1.1803 189.0067 107 132 85 1
252.1704 -1.4138 195.3447 107 132 85 1
251.9129 -1.6612 203.5462 107 132 85 1
252.8655 -1.7941 209.9594 107 132 85 1
253.2512 -1.8357 215.9241 107 132 85 1
252.0769 -1.6415 230.0742 47 50 54 2
251.0517 -1.3570 238.6550 107 132 85 1
252.6937 -1.0080 246.0613 47 50 54 2
252.5174 -0.7745 251.0341 174 174 166 3
251.8614 -0.3994 259.0469 107 132 85 1
251.3523 -0.0979 265.8117 107 132 85 1
252.6150 0.6452 288.1474 107 132 85 1
252.9096 0.7672 292.8836 107 132 85 1
252.4971 1.3409 315.0468 107 132 85 1
252.5335 1.4873 321.1790 107 132 85 1
250.7899 1.6274 329.8852 47 50 54 2
252.7673 1.6042 350.6209 107 132 85 1
251.7095 0.4092 378.3182 107 132 85 1
258.4537 -1.2537 0.0000 47 50 54 2
258.0755 -1.1437 7.4357 174 174 166 3
257.7731 -0.8763 20.5206 107 132 85 1
260.0633 -0.6526 28.3422 107 132 85 1
259.9363 -0.3525 35.9017 107 132 85 1
259.1417 -0.0154 43.0982 107 132 85 1
258.3439 0.5949 54.8249 107 132 85 1
257.7561 1.0400 63.6347 107 132 85 1
258.9472 1.5694 77.8031 47 50 54 2
259.8146 1.6750 84.5898 107 132 85 1
258.1478 1.6737 98.6358 107 132 85 1
259.5106 1.1799 118.4463 107 132 85 1
259.7208 0.9938 125.0762 107 132 85 1
259.5744 0.1828 154.3199 47 50 54 2
258.8513 -0.0224 160.1879 174 174 166 3
260.1252 -0.3662 169.2128 107 132 85 1
260.1571 -0.9349 182.0440 107 132 85 1
259.9680 -1.1935 188.0261 107 132 85 1
259.3442 -1.4877 195.8789 107 132 85 1
258.1120 -1.8047 216.0292 107 132 85 1
258.6808 -1.6881 224.1493 107 132 85 1
260.0020 -1.5031 229.9910 107 132 85 1
257.9555 -1.2361 238.7357 107 132 85 1
258.6170 -0.9282 245.7733 47 50 54 2
259.0647 -0.6725 251.6475 47 50 54 2
257.9782 -0.1339 265.4542 107 132 85 1
259.9018 0.1074 273.3587 107 132 85 1
258.7712 0.3175 279.9083 107 132 85 1
258.3764 0.5299 287.1302 107 132 85 1
260.2026 0.7316 294.9306 107 132 85 1
259.1920 1.1678 308.6117 107 132 85 1
259.6869 1.6769 328.5958 47 50 54 2
259.6979 1.7362 334.9829 174 174 166 3
258.5128 1.3804 356.2938 107 132 85 1
258.9180 0.9967 364.9846 107 132 85 1
266.9631 -1.2109 0.4415 174 174 166 3
266.8602 -1.1619 6.1786 47 50 54 2
265.9811 -0.3559 35.0790 107 132 85 1
264.8130 1.0644 63.8323 107 132 85 1
265.2169 1.3149 70.9002 107 132 85 1
265.1073 1.4589 76.7050 47 50 54 2
266.1303 1.5133 82.9332 174 174 166 3
266.7135 1.4860 92.1881 107 132 85 1
266.9117 1.1945 111.1813 107 132 85 1
266.3978 1.0570 118.9136 107 132 85 1
266.8400 0.7783 133.2488 107 132 85 1
266.9893 0.6228 140.6472 107 132 85 1
265.0640 0.4288 147.8435 107 132 85 1
266.0186 0.2290 154.5277 47 50 54 2
266.7305 0.0024 160.7849 174 174 166 3
266.5147 -0.2534 166.8874 107 132 85 1
265.0721 -1.6599 215.9055 107 132 85 1
266.0643 -1.4978 223.5218 107 132 85 1
265.5768 -1.3419 229.9290 107 132 85 1
265.2979 -0.8633 244.2165 174 174 166 3
265.4861 -0.5553 253.1356 47 50 54 2
265.0480 0.1851 278.8230 107 132 85 1
266.8223 0.4270 288.0764 107 132 85 1
265.3492 0.6018 292.9043 107 132 85 1
265.5523 1.3711 315.8334 107 132 85 1
264.7615 1.5145 321.0459 107 132 85 1
266.5800 1.6298 328.7974 47 50 54 2
266.3727 1.6581 335.4038 47 50 54 2
264.7811 1.2187 356.7369 107 132 85 1
265.7852 0.9048 363.4570 107 132 85 1
265.9457 0.5098 372.0122 107 132 85 1
266.4543 0.1977 378.9524 107 132 85 1
271.9013 -1.1636 0.0000 174 174 166 3
271.8620 -1.1274 5.7880 47 50 54 2
272.7553 -1.0201 12.9059 174 174 166 3
272.6522 -0.8332 20.7382 107 132 85 1
272.2856 -0.2857 34.9983 107 132 85 1
273.3617 0.1094 42.9609 107 132 85 1
274.0721 0.4097 49.2075 107 132 85 1
273.6172 0.9705 63.8097 107 132 85 1
271.8996 1.1538 69.4937 107 132 85 1
273.9286 1.2003 76.6036 47 50 54 2
272.2384 1.2991 84.3474 174 174 166 3
274.0397 1.1427 97.0597 107 132 85 1
273.4138 1.0816 105.1681 107 132 85 1
272.9241 1.0321 110.8863 107 132 85 1
274.1649 0.9254 118.1986 107 132 85 1
272.0985 0.8853 124.7427 107 132 85 1
273.8209 0.6257 140.8860 107 132 85 1
271.9776 0.4699 147.3605 107 132 85 1
273.3324 0.2325 154.8381 47 50 54 2
273.5536 0.0340 160.0410 174 174 166 3
271.9066 -0.5901 174.3284 107 132 85 1
273.2253 -1.3395 217.0045 107 132 85 1
271.9076 -1.0515 232.2176 107 132 85 1
273.4019 -0.5275 251.7942 47 50 54 2
273.0715 -0.1023 272.0978 107 132 85 1
274.1107 0.3172 287.6437 107 132 85 1
272.9248 0.5313 293.4906 107 132 85 1
272.3474 0.7804 300.1856 107 132 85 1
273.2919 1.2695 315.3188 107 132 85 1
273.6071 1.4027 321.8229 107 132 85 1
273.3173 1.4774 328.0158 174 174 166 3
273.1071 1.4584 336.8055 47 50 54 2
272.4170 1.3985 342.2494 107 132 85 1
273.6508 1.1183 350.9357 107 132 85 1
273.5254 0.1716 378.2082 107 132 85 1
279.0550 -0.9917 7.6465 47 50 54 2
278.8876 -0.8857 14.2544 174 174 166 3
279.5548 -0.6749 21.5625 107 132 85 1
280.1274 -0.4807 26.7894 107 132 85 1
279.0960 0.4544 50.1637 107 132 85 1
279.4064 0.6327 55.5202 107 132 85 1
279.7828 0.8040 62.6040 107 132 85 1
280.2912 0.9009 70.6759 107 132 85 1
279.5713 0.9678 77.9535 47 50 54 2
279.2791 0.9798 82.8794 174 174 166 3
279.5747 0.9365 90.1066 107 132 85 1
279.6410 0.8550 105.3388 107 132 85 1
279.1748 0.8180 119.5232 107 132 85 1
280.8773 0.7561 126.6320 107 132 85 1
280.2328 0.7213 132.0208 107 132 85 1
280.3797 0.6157 139.3567 107 132 85 1
278.9232 0.2039 154.9353 47 50 54 2
279.7191 -0.0286 160.9448 174 174 166 3
279.7551 -1.0052 217.9303 107 132 85 1
279.9141 -0.8934 223.9942 107 132 85 1
279.9258 -0.7894 229.8162 107 132 85 1
281.0858 -0.4550 252.6209 47 50 54 2
280.5101 -0.3747 259.7936 174 174 166 3
279.2805 0.0244 279.8030 107 132 85 1
278.8205 0.2834 288.1124 107 132 85 1
279.1962 0.4663 293.5209 107 132 85 1
279.0089 0.9529 307.7626 107 132 85 1
279.6544 1.1074 314.2468 107 132 85 1
279.8393 1.2138 321.2005 107 132 85 1
281.0866 1.1132 336.3856 47 50 54 2
280.1770 1.0418 342.6194 174 174 166 3
281.0828 0.8450 348.7833 107 132 85 1
280.5997 0.4573 363.8179 107 132 85 1
280.3989 0.2925 370.8290 107 132 85 1
279.0518 0.1347 378.8330 107 132 85 1
286.0774 -0.8574 0.0000 47 50 54 2
288.1614 -0.7299 7.3471 174 174 166 3
286.4236 -0.6510 15.1021 47 50 54 2
285.9576 -0.5366 20.1126 107 132 85 1
286.3411 -0.2743 28.0519 107 132 85 1
288.1713 0.1895 41.5616 107 132 85 1
287.5279 0.4918 55.7566 107 132 85 1
287.2834 0.5645 62.0236 107 132 85 1
288.1217 0.5397 77.3974 107 132 85 1
286.8765 0.5852 83.9907 174 174 166 3
287.1610 0.5545 91.8178 107 132 85 1
285.9944 0.6231 105.1505 107 132 85 1
287.0579 0.6426 127.2514 107 132 85 1
287.4548 0.5961 133.1014 107 132 85 1
287.8555 0.3464 146.6887 107 132 85 1
286.4484 0.1360 154.6725 47 50 54 2
286.9427 -0.0382 159.7456 47 50 54 2
286.7655 -0.4529 239.1167 107 132 85 1
286.4838 -0.4357 245.7595 107 132 85 1
287.2541 -0.4074 251.4139 174 174 166 3
288.1860 -0.3709 257.9097 47 50 54 2
286.6765 -0.0406 278.9860 107 132 85 1
287.5555 0.4234 295.0053 107 132 85 1
287.7271 0.5729 300.3546 107 132 85 1
285.9205 0.9682 321.2917 107 132 85 1
286.9367 0.8999 327.7408 107 132 85 1
288.1734 0.7453 334.7950 174 174 166 3
285.8126 0.7367 342.8014 47 50 54 2
286.9225 0.4045 356.2897 107 132 85 1
285.9228 0.3095 363.7722 174 174 166 3
286.4958 0.2133 370.0015 47 50 54 2
287.8221 0.1384 378.0079 47 50 54 2
293.7841 -0.5652 1.2107 47 50 54 2
293.6119 -0.5122 7.2954 174 174 166 3
293.1928 -0.4304 13.2786 47 50 54 2
293.3304 -0.1054 26.9581 107 132 85 1
295.0979 0.0892 33.8544 107 132 85 1
292.9980 0.2282 42.8084 107 132 85 1
294.1144 0.2840 48.4184 107 132 85 1
294.6981 0.2373 69.4238 107 132 85 1
293.6456 0.2563 75.7532 107 132 85 1
293.7517 0.2268 83.3654 107 132 85 1
293.2354 0.2569 89.8810 174 174 166 3
294.7407 0.2338 97.7583 107 132 85 1
294.6295 0.4339 118.5735 107 132 85 1
294.3254 0.4628 125.9436 107 132 85 1
295.1180 0.3167 140.0715 107 132 85 1
294.0346 0.0431 153.9946 47 50 54 2
294.0639 -0.1208 160.6070 174 174 166 3
292.8386 -0.4086 174.2007 107 132 85 1
294.5879 -0.4354 182.2276 107 132 85 1
294.4488 -0.4394 189.1684 107 132 85 1
293.6464 -0.4457 195.7034 107 132 85 1
293.5892 -0.3864 202.7944 107 132 85 1
294.6541 -0.2081 216.3556 107 132 85 1
292.9710 -0.2645 223.9677 107 132 85 1
294.4433 -0.2067 230.1649 107 132 85 1
293.8506 -0.2554 236.7554 107 132 85 1
293.4656 -0.3316 252.2277 107 132 85 1
293.1941 -0.3300 257.8321 47 50 54 2
293.3794 -0.0224 279.9291 107 132 85 1
294.9880 0.2795 293.2847 107 132 85 1
294.2911 0.5274 308.2887 107 132 85 1
294.2293 0.5561 315.8114 107 132 85 1
293.2055 0.4280 335.4646 174 174 166 3
293.8752 0.2670 343.5954 47 50 54 2
294.0312 0.1920 349.0018 47 50 54 2
294.0584 0.1333 355.8611 47 50 54 2
294.3309 0.1025 363.0693 47 50 54 2
294.3353 0.1170 371.9451 174 174 166 3
292.9612 0.1358 376.8322 174 174 166 3
299.7732 -0.2954 0.0000 47 50 54 2
301.2964 -0.1627 5.9809 174 174 166 3
301.1066 0.0236 19.8323 107 132 85 1
301.3132 0.1886 41.1152 107 132 85 1
300.4063 0.1675 48.8225 107 132 85 1
300.7765 0.0934 55.8442 107 132 85 1
300.8743 -0.0731 70.4920 107 132 85 1
300.0093 -0.0781 85.1070 107 132 85 1
302.1971 -0.1438 90.3422 107 132 85 1
301.7294 -0.0509 97.3103 47 50 54 2
300.0286 0.1274 106.1169 107 132 85 1
302.2269 0.1858 120.2349 107 132 85 1
299.9994 0.2785 125.9427 107 132 85 1
301.8766 0.1794 133.0935 107 132 85 1
301.7733 0.0293 146.1743 107 132 85 1
300.6961 -0.0631 153.9037 47 50 54 2
301.7831 -0.1524 160.2262 174 174 166 3
301.0730 -0.2126 168.6724 107 132 85 1
299.9973 -0.2460 175.1714 107 132 85 1
299.8913 -0.2256 181.8907 47 50 54 2
299.7572 -0.0120 202.9812 107 132 85 1
300.5269 0.0983 217.0668 107 132 85 1
300.3460 0.0594 224.1067 107 132 85 1
301.3602 0.0367 230.4298 107 132 85 1
302.2200 -0.0457 238.7960 107 132 85 1
299.8146 -0.1850 245.9255 107 132 85 1
302.2315 -0.1947 258.1173 47 50 54 2
300.5457 -0.1862 266.2857 174 174 166 3
300.9477 -0.0103 279.5512 107 132 85 1
301.3674 0.1707 292.8503 107 132 85 1
302.0242 0.2041 301.7724 107 132 85 1
301.9344 0.1918 308.6419 107 132 85 1
300.8874 0.2015 314.8459 107 132 85 1
300.8206 0.1219 322.3240 174 174 166 3
302.0196 -0.0401 328.7245 47 50 54 2
300.1126 -0.0105 336.2051 47 50 54 2
300.5206 -0.0880 342.3680 47 50 54 2
301.7748 -0.1646 348.9647 174 174 166 3
301.6848 -0.1154 357.5436 107 132 85 1
300.7473 -0.0238 364.4985 107 132 85 1
299.7538 0.0689 371.7740 107 132 85 1
307.0434 0.0908 0.4763 47 50 54 2
308.8278 0.2362 6.4120 47 50 54 2
307.4235 0.2272 13.9917 174 174 166 3
307.8945 0.2816 20.8189 174 174 166 3
307.1639 0.2587 28.9156 174 174 166 3
307.7707 0.2222 34.7834 174 174 166 3
309.1814 0.0890 42.6429 107 132 85 1
307.8911 -0.0089 48.7114 107 132 85 1
307.1809 -0.2727 63.6892 107 132 85 1
308.3138 -0.4489 78.1278 107 132 85 1
308.6436 -0.4535 82.9619 107 132 85 1
308.2225 -0.2750 98.7981 47 50 54 2
307.1351 -0.1365 105.9771 174 174 166 3
307.4426 -0.0127 125.7812 107 132 85 1
308.4474 -0.0723 132.2025 107 132 85 1
309.1279 -0.1430 140.8533 107 132 85 1
308.3212 -0.1532 147.7288 107 132 85 1
307.4666 -0.1579 153.7981 107 132 85 1
307.2039 -0.1557 160.2167 107 132 85 1
307.1630 -0.0330 174.1772 107 132 85 1
308.9307 0.1926 182.7533 47 50 54 2
307.0747 0.2313 189.7232 107 132 85 1
308.5570 0.4027 195.3547 107 132 85 1
307.5956 0.4394 203.7788 107 132 85 1
308.7769 0.5101 211.2219 107 132 85 1
309.0569 0.4941 215.9338 107 132 85 1
309.0951 0.3940 224.1710 107 132 85 1
308.4215 0.2449 231.7827 107 132 85 1
308.8305 0.0365 245.9696 107 132 85 1
307.3398 -0.0557 251.4714 107 132 85 1
308.4355 -0.0581 258.9982 174 174 166 3
308.9933 -0.0379 265.8819 47 50 54 2
307.3441 -0.0272 273.5229 107 132 85 1
307.1455 0.0124 279.5826 107 132 85 1
307.2297 0.0484 286.9287 107 132 85 1
308.2181 0.0244 294.2185 174 174 166 3
308.4613 -0.0414 301.4019 47 50 54 2
308.1619 -0.1248 308.7544 47 50 54 2
308.2889 -0.2429 315.6419 47 50 54 2
309.1063 -0.4070 322.7609 47 50 54 2
307.5278 -0.3942 329.4852 174 174 166 3
308.1379 -0.4728 335.6140 107 132 85 1
307.4471 -0.4348 343.3019 47 50 54 2
307.1822 -0.3667 350.4060 174 174 166 3
309.1791 -0.3128 357.5576 107 132 85 1
306.9188 -0.1261 364.8559 107 132 85 1
306.9952 0.0062 372.1940 107 132 85 1
315.4809 0.5563 0.1722 47 50 54 2
315.4691 0.5800 7.7523 174 174 166 3
316.0661 0.5898 14.0732 174 174 166 3
314.8484 0.4819 21.5566 47 50 54 2
313.7695 0.3623 28.1723 47 50 54 2
315.6404 0.2456 33.7728 47 50 54 2
314.5804 0.0081 42.4349 47 50 54 2
314.7336 -0.1817 48.6765 47 50 54 2
313.9288 -0.3327 54.8751 107 132 85 1
315.2078 -0.5803 64.2170 107 132 85 1
314.7478 -0.6381 69.4604 107 132 85 1
315.1633 -0.6756 83.9811 107 132 85 1
315.1600 -0.5265 98.8213 47 50 54 2
316.0139 -0.4836 105.9566 47 50 54 2
316.1235 -0.4353 113.0701 107 132 85 1
315.5729 -0.3694 133.1410 107 132 85 1
314.1778 -0.3084 140.8692 107 132 85 1
315.1911 -0.2939 148.2059 107 132 85 1
314.6713 -0.2107 154.7548 107 132 85 1
313.9937 0.2044 174.3361 107 132 85 1
315.0517 0.4811 183.0660 47 50 54 2
315.2275 0.6510 190.0756 174 174 166 3
314.0367 0.6777 194.9498 107 132 85 1
315.5272 0.8160 203.3447 107 132 85 1
314.0493 0.7461 209.4015 107 132 85 1
314.3422 0.6792 217.4738 107 132 85 1
314.5608 0.5709 224.5701 107 132 85 1
314.1880 0.1932 246.0700 107 132 85 1
315.2947 0.1731 251.4277 107 132 85 1
315.1839 0.0966 265.2911 47 50 54 2
313.9679 0.0509 273.6589 107 132 85 1
316.0512 0.0297 279.0451 47 50 54 2
314.5201 -0.0344 286.0508 47 50 54 2
315.9962 -0.2072 294.5224 47 50 54 2
314.4201 -0.3009 301.7449 47 50 54 2
314.1331 -0.4200 307.7805 47 50 54 2
315.2765 -0.7678 322.5854 107 132 85 1
315.5847 -0.8398 328.5109 107 132 85 1
314.8288 -0.7295 343.7780 174 174 166 3
315.9928 -0.6765 348.7641 47 50 54 2
315.1102 -0.2771 364.3550 107 132 85 1
322.8373 0.9388 0.4962 47 50 54 2
322.2194 0.8826 7.2142 107 132 85 1
323.2508 0.8109 14.8107 107 132 85 1
321.9953 0.6239 21.5937 107 132 85 1
323.2435 0.4626 27.1154 107 132 85 1
321.5295 0.1696 35.1687 107 132 85 1
321.6137 -0.6047 57.1092 107 132 85 1
321.8034 -0.7641 64.1608 107 132 85 1
321.5390 -0.8295 69.3947 107 132 85 1
322.8440 -0.9020 77.9061 107 132 85 1
322.5216 -0.8841 83.6197 107 132 85 1
321.4302 -0.8115 90.9354 107 132 85 1
321.1304 -0.6960 105.4529 47 50 54 2
321.1361 -0.6667 111.5653 107 132 85 1
323.2150 -0.7414 118.7236 107 132 85 1
323.2006 -0.7197 125.0388 107 132 85 1
321.7713 -0.6113 133.2951 107 132 85 1
322.3560 -0.5605 139.5266 107 132 85 1
323.0882 -0.4305 146.9467 107 132 85 1
322.3682 -0.2470 153.5502 107 132 85 1
322.1634 -0.0310 160.2183 107 132 85 1
322.7867 0.2953 168.6441 107 132 85 1
321.0765 0.4345 173.8264 107 132 85 1
322.7548 0.7711 182.1908 174 174 166 3
323.0746 0.9575 189.1451 47 50 54 2
321.7589 1.0094 195.4918 107 132 85 1
321.0302 1.0232 202.0476 107 132 85 1
321.2778 0.8925 217.9477 107 132 85 1
321.7260 0.6786 230.6095 107 132 85 1
321.4922 0.3705 251.8950 174 174 166 3
320.8632 0.2772 259.6549 174 174 166 3
322.1336 0.2477 265.3717 47 50 54 2
321.6779 0.1280 273.2454 47 50 54 2
322.5483 -0.0264 280.7831 47 50 54 2
322.8184 -0.1775 286.2803 174 174 166 3
