ply
format ascii 1.0
comment generated by citygen
element vertex 1269
property float x
property float y
property float z
property uchar red
property uchar green
property uchar blue
property int class
end_header
174.3054 -0.0789 320.2147 47 50 54 2
175.3835 -0.0821 324.8046 47 50 54 2
174.9925 -0.0932 329.4902 174 174 166 3
175.6299 -0.0636 335.6850 174 174 166 3
174.6085 -0.0705 340.5522 174 174 166 3
174.4557 -0.0506 344.5553 47 50 54 2
174.9364 0.0112 350.3476 47 50 54 2
174.6678 0.0442 355.6633 47 50 54 2
175.5285 0.1092 360.0879 47 50 54 2
174.3743 0.0936 364.4098 47 50 54 2
175.3207 0.1453 369.4324 47 50 54 2
175.2466 0.1471 374.9041 47 50 54 2
174.5371 0.1178 380.4257 47 50 54 2
180.0577 -0.1220 0.0000 47 50 54 2
179.9280 -0.0950 4.3814 47 50 54 2
179.8871 -0.0711 9.9631 47 50 54 2
179.4028 -0.0467 15.0605 47 50 54 2
179.9164 -0.0622 19.6636 47 50 54 2
179.7923 -0.0690 24.7096 47 50 54 2
179.9927 -0.0987 30.6624 47 50 54 2
180.5767 -0.1387 35.2335 174 174 166 3
180.2552 -0.1516 40.2329 174 174 166 3
180.2251 -0.1682 45.1341 174 174 166 3
179.8733 -0.1695 49.7065 47 50 54 2
180.2097 -0.1712 55.4517 174 174 166 3
180.3813 -0.1541 60.0985 174 174 166 3
180.3650 -0.1248 64.4078 47 50 54 2
179.5480 -0.0836 69.3960 47 50 54 2
180.1315 -0.0245 74.3813 47 50 54 2
180.4268 0.0585 80.6232 47 50 54 2
179.4593 0.1017 85.6382 47 50 54 2
180.4000 0.1714 89.8894 47 50 54 2
180.6957 0.2336 95.6274 47 50 54 2
180.4927 0.2605 100.4798 47 50 54 2
180.2332 0.2694 104.7488 47 50 54 2
180.1746 0.2688 110.6516 47 50 54 2
179.8767 0.2478 115.1951 47 50 54 2
179.5472 0.2148 119.8759 47 50 54 2
180.0850 0.1934 124.4702 47 50 54 2
179.7895 0.1407 130.1624 47 50 54 2
180.4997 0.1164 135.1870 47 50 54 2
179.3857 0.0605 139.5401 47 50 54 2
180.5459 0.0601 144.7812 47 50 54 2
180.6430 0.0468 150.2100 47 50 54 2
179.4438 0.0136 154.3311 47 50 54 2
179.5471 0.0220 159.4077 47 50 54 2
180.3804 0.0551 164.4138 47 50 54 2
179.6016 0.0609 170.6554 47 50 54 2
179.4406 0.0733 174.7223 47 50 54 2
179.9825 0.0928 179.3875 47 50 54 2
180.6374 0.0973 185.2618 47 50 54 2
179.4746 0.0882 189.3721 47 50 54 2
179.6234 0.0673 194.5220 47 50 54 2
179.6303 0.0261 200.4646 47 50 54 2
179.7560 -0.0176 204.9084 47 50 54 2
180.5764 -0.0897 209.6143 47 50 54 2
180.2542 -0.1381 214.5017 47 50 54 2
180.0680 -0.1984 220.5485 47 50 54 2
180.6904 -0.2550 224.4921 47 50 54 2
179.9481 -0.2679 229.7609 47 50 54 2
180.6785 -0.3092 235.0961 47 50 54 2
180.4366 -0.3003 240.6354 47 50 54 2
180.0518 -0.2714 245.6265 47 50 54 2
179.3887 -0.2251 250.4208 47 50 54 2
180.6336 -0.2084 255.3824 47 50 54 2
180.3122 -0.1597 259.5943 47 50 54 2
179.8497 -0.0953 265.0781 47 50 54 2
179.7857 -0.0425 270.5542 47 50 54 2
179.7766 -0.0059 275.2198 47 50 54 2
180.1770 0.0176 280.4731 47 50 54 2
180.3236 0.0301 284.9926 47 50 54 2
180.4729 0.0328 290.6066 47 50 54 2
180.6688 0.0252 295.2591 47 50 54 2
180.5147 0.0150 300.3268 47 50 54 2
179.6035 0.0048 305.3870 47 50 54 2
179.8129 -0.0092 309.6927 47 50 54 2
179.9578 -0.0180 314.4111 47 50 54 2
179.7016 -0.0207 319.9451 47 50 54 2
179.4833 -0.0115 325.6473 47 50 54 2
180.1831 0.0258 330.1264 47 50 54 2
179.3551 0.0368 334.8394 47 50 54 2
180.3109 0.1075 339.6310 47 50 54 2
179.6794 0.1427 345.5232 47 50 54 2
179.4861 0.1748 349.6839 47 50 54 2
180.1202 0.2380 354.3927 47 50 54 2
179.4034 0.2499 360.3309 47 50 54 2
179.5146 0.2695 364.7499 47 50 54 2
179.8208 0.2808 369.5948 47 50 54 2
179.6630 0.2571 375.4867 47 50 54 2
179.7656 0.2251 380.5350 47 50 54 2
184.3586 -0.2152 0.0928 47 50 54 2
184.3913 -0.2010 5.2850 174 174 166 3
184.6873 -0.2029 9.8442 107 132 85 1
185.5091 -0.2429 20.4463 107 132 85 1
185.1559 -0.2471 25.3352 107 132 85 1
185.2416 -0.2796 34.5635 107 132 85 1
184.5108 -0.2682 40.0259 107 132 85 1
184.6617 -0.2709 44.7125 107 132 85 1
185.4856 -0.1817 59.6063 107 132 85 1
184.8113 -0.1059 65.3882 174 174 166 3
184.8165 -0.0299 70.4307 174 174 166 3
185.3559 0.0496 74.8808 174 174 166 3
184.5611 0.1230 80.0662 174 174 166 3
184.3656 0.1844 84.3057 174 174 166 3
185.2080 0.2768 89.8908 174 174 166 3
184.4688 0.3132 94.8295 174 174 166 3
184.8286 0.3591 100.4219 174 174 166 3
184.3308 0.3631 105.3498 47 50 54 2
185.6299 0.3858 110.6094 47 50 54 2
185.3607 0.3612 115.6925 174 174 166 3
185.4791 0.3403 119.7001 174 174 166 3
185.2300 0.2982 124.9692 174 174 166 3
185.4357 0.2658 129.9271 174 174 166 3
184.7631 0.2113 135.6166 174 174 166 3
185.5460 0.2074 139.6305 174 174 166 3
184.7362 0.1636 145.3827 174 174 166 3
184.7083 0.1514 150.6559 174 174 166 3
184.5381 0.1443 154.3095 174 174 166 3
184.9515 0.1563 159.6707 174 174 166 3
184.4246 0.1481 165.2845 47 50 54 2
185.0566 0.1616 170.6211 47 50 54 2
184.3769 0.1455 175.1943 47 50 54 2
184.7315 0.1331 180.4199 47 50 54 2
184.9077 0.1102 184.5107 47 50 54 2
185.6083 0.0563 190.2405 47 50 54 2
184.9953 -0.0034 195.6998 47 50 54 2
185.2049 -0.0697 200.2641 174 174 166 3
184.7727 -0.1367 205.3708 174 174 166 3
185.3649 -0.2225 210.0830 174 174 166 3
184.9457 -0.2758 214.5958 174 174 166 3
184.7911 -0.3309 219.3699 174 174 166 3
185.0251 -0.3966 225.6736 174 174 166 3
184.5632 -0.4068 229.8025 174 174 166 3
184.3043 -0.4107 234.7960 174 174 166 3
185.1466 -0.4207 240.3694 174 174 166 3
184.4666 -0.3828 244.4388 174 174 166 3
185.6456 -0.3550 250.6561 47 50 54 2
185.3127 -0.3072 254.6007 47 50 54 2
185.4731 -0.2555 259.4722 174 174 166 3
184.6826 -0.1731 265.6717 174 174 166 3
184.7686 -0.1378 269.3666 174 174 166 3
184.4168 -0.0852 274.9038 174 174 166 3
184.9391 -0.0663 279.3560 174 174 166 3
185.6865 -0.0539 285.3369 174 174 166 3
184.5169 -0.0248 289.9784 174 174 166 3
185.2119 -0.0288 295.1655 174 174 166 3
184.9086 -0.0224 299.4316 174 174 166 3
184.7630 -0.0159 305.1570 174 174 166 3
185.5068 -0.0024 310.4801 174 174 166 3
184.8414 0.0120 314.4744 174 174 166 3
185.5406 0.0593 320.4421 47 50 54 2
184.6587 0.0865 325.2237 47 50 54 2
185.3271 0.1599 330.6117 174 174 166 3
184.5978 0.1880 334.6682 174 174 166 3
184.3369 0.2504 340.5274 174 174 166 3
184.7371 0.3168 345.0879 107 132 85 1
184.9649 0.3691 349.4247 47 50 54 2
185.0473 0.4184 355.6454 47 50 54 2
185.1602 0.4387 365.1849 107 132 85 1
184.7818 0.3772 374.5812 107 132 85 1
184.5296 0.3150 380.1357 107 132 85 1
190.1846 -0.3457 0.0951 47 50 54 2
190.5373 -0.3608 5.5622 174 174 166 3
189.8941 -0.4009 24.7298 107 132 85 1
189.8788 -0.4036 39.9929 107 132 85 1
190.3724 -0.3843 44.9943 107 132 85 1
190.1827 -0.3332 49.9576 107 132 85 1
190.0317 -0.2721 54.5445 107 132 85 1
189.9853 -0.1854 59.9148 107 132 85 1
190.2423 -0.0842 65.2402 107 132 85 1
189.9524 0.0172 70.3428 107 132 85 1
190.0218 0.2946 84.8338 107 132 85 1
189.7414 0.3613 89.7765 107 132 85 1
190.5947 0.4294 94.7327 107 132 85 1
190.5121 0.4632 99.8976 107 132 85 1
190.6680 0.4808 105.4430 47 50 54 2
190.1360 0.4685 110.1584 47 50 54 2
190.0784 0.4531 114.6563 174 174 166 3
189.9880 0.3167 140.5278 107 132 85 1
190.4154 0.3174 144.3185 107 132 85 1
190.3018 0.3031 150.3980 174 174 166 3
189.3078 0.2705 155.1010 174 174 166 3
190.0225 0.2815 160.3581 47 50 54 2
189.5519 0.2602 164.9120 47 50 54 2
189.4968 0.2420 169.5497 47 50 54 2
190.1458 0.2164 174.9909 47 50 54 2
189.7589 0.1595 180.5712 47 50 54 2
189.3414 0.1142 184.3102 47 50 54 2
190.0624 0.0210 190.3556 47 50 54 2
190.2958 -0.0662 195.1121 47 50 54 2
190.1926 -0.1572 199.9798 47 50 54 2
189.3326 -0.2277 204.6468 174 174 166 3
190.1611 -0.3309 209.3107 174 174 166 3
189.4702 -0.5356 230.2565 107 132 85 1
190.6189 -0.5070 244.6026 107 132 85 1
190.6802 -0.4561 249.9918 47 50 54 2
190.5753 -0.3972 255.1325 47 50 54 2
189.5381 -0.3297 259.4124 107 132 85 1
189.6678 -0.2761 264.4778 107 132 85 1
189.8985 -0.2212 270.5930 107 132 85 1
189.8960 -0.1273 285.1753 107 132 85 1
189.3281 -0.1004 289.4034 107 132 85 1
190.4885 -0.0332 305.0576 107 132 85 1
190.6016 0.0700 315.3001 107 132 85 1
190.4146 0.1211 319.3702 174 174 166 3
190.3351 0.1962 324.5831 47 50 54 2
189.7500 0.3341 334.3057 107 132 85 1
189.9622 0.5357 349.6675 47 50 54 2
189.7834 0.5613 354.6303 47 50 54 2
189.7476 0.4747 374.3264 107 132 85 1
190.1084 0.4135 379.3338 107 132 85 1
195.2972 -0.4626 0.0000 47 50 54 2
195.3184 -0.4883 5.4864 174 174 166 3
195.3046 -0.5091 9.6376 107 132 85 1
195.0615 -0.5312 15.5175 107 132 85 1
194.9193 -0.5599 25.4143 107 132 85 1
194.3611 -0.5450 30.1006 107 132 85 1
195.4388 -0.5544 35.6368 107 132 85 1
194.5894 -0.5074 39.7131 107 132 85 1
195.1516 -0.3021 54.3091 107 132 85 1
194.9293 -0.1701 60.4131 107 132 85 1
194.7289 -0.0530 65.4570 107 132 85 1
195.5702 0.2932 80.3425 107 132 85 1
194.5076 0.5368 105.1929 174 174 166 3
195.5507 0.5499 110.1706 47 50 54 2
195.5169 0.5400 114.7299 174 174 166 3
194.9844 0.5136 120.0399 107 132 85 1
195.0567 0.4416 145.1524 174 174 166 3
194.6396 0.4225 149.5033 47 50 54 2
194.4524 0.4058 154.6848 47 50 54 2
194.7405 0.3910 160.4283 47 50 54 2
194.8061 0.3668 164.6381 174 174 166 3
195.1474 0.3309 169.3534 47 50 54 2
194.4065 0.2470 175.6316 47 50 54 2
194.5703 0.1746 180.3710 47 50 54 2
195.2421 0.0737 185.6248 47 50 54 2
195.6872 -0.0233 189.9188 47 50 54 2
194.8374 -0.1383 195.4100 174 174 166 3
195.1178 -0.2349 199.4320 47 50 54 2
195.1690 -0.3608 205.1013 47 50 54 2
195.6256 -0.4581 209.5271 47 50 54 2
194.9400 -0.5354 215.0683 174 174 166 3
194.9985 -0.6508 230.1494 107 132 85 1
194.9593 -0.5757 245.2609 174 174 166 3
195.5631 -0.5369 250.1572 47 50 54 2
194.4907 -0.4705 254.6762 174 174 166 3
194.9079 -0.3640 265.6133 107 132 85 1
195.5255 -0.0309 305.5620 107 132 85 1
194.7477 0.0347 310.2542 107 132 85 1
194.8570 0.1912 319.3194 47 50 54 2
194.3739 0.2829 324.6228 47 50 54 2
194.9552 0.3893 329.4331 174 174 166 3
195.3916 0.5921 340.4650 107 132 85 1
195.3358 0.6494 345.1533 107 132 85 1
195.6593 0.6953 349.5042 47 50 54 2
195.1534 0.7041 354.9903 47 50 54 2
194.5264 0.6099 369.7450 107 132 85 1
194.9318 0.5565 374.3051 107 132 85 1
200.2836 -0.5808 0.4791 47 50 54 2
199.4323 -0.5947 5.0927 174 174 166 3
200.6497 -0.6598 9.5150 107 132 85 1
199.5760 -0.6845 19.8812 107 132 85 1
200.1833 -0.7078 24.4560 107 132 85 1
199.4167 -0.5958 39.4032 107 132 85 1
199.3058 -0.3087 54.4118 107 132 85 1
200.3211 -0.1761 59.5516 107 132 85 1
199.9162 0.1014 70.0689 107 132 85 1
199.3747 0.2265 75.3667 107 132 85 1
200.4686 0.4240 84.7417 107 132 85 1
200.5620 0.4935 89.4310 107 132 85 1
199.9615 0.5493 95.2122 107 132 85 1
199.4976 0.5750 99.6504 107 132 85 1
200.5086 0.6034 104.9123 174 174 166 3
199.4295 0.5983 110.2554 47 50 54 2
199.9085 0.6015 115.4341 174 174 166 3
200.1735 0.6011 119.5185 107 132 85 1
200.5581 0.6024 124.7991 107 132 85 1
200.5476 0.5986 129.8306 107 132 85 1
199.4399 0.5694 134.8079 174 174 166 3
199.6503 0.5705 139.7197 47 50 54 2
200.2904 0.5807 144.8877 47 50 54 2
199.3775 0.5460 149.7834 47 50 54 2
199.8387 0.5346 155.0968 174 174 166 3
199.6413 0.4977 159.7915 107 132 85 1
200.5091 0.4636 164.4941 47 50 54 2
200.5225 0.3906 169.5506 47 50 54 2
200.0294 0.2747 175.6631 174 174 166 3
200.5166 0.1865 179.6996 47 50 54 2
200.5605 0.0516 185.1511 174 174 166 3
199.6244 -0.0698 190.1255 47 50 54 2
199.4764 -0.1856 194.6194 47 50 54 2
200.0040 -0.3173 199.4422 107 132 85 1
199.5610 -0.4480 205.3164 174 174 166 3
199.9103 -0.5368 209.3806 47 50 54 2
199.4027 -0.6150 214.6277 47 50 54 2
200.5628 -0.7003 220.5778 47 50 54 2
200.1128 -0.7235 225.6260 174 174 166 3
200.2988 -0.6952 239.9554 107 132 85 1
199.5168 -0.6451 245.0856 174 174 166 3
200.6697 -0.6234 249.3163 47 50 54 2
199.9794 -0.5585 255.0791 174 174 166 3
199.7944 -0.4220 270.2506 107 132 85 1
200.1004 -0.3958 274.3953 107 132 85 1
200.6950 -0.0187 305.6416 107 132 85 1
199.7652 0.0549 309.5093 107 132 85 1
199.4344 0.1707 315.0406 107 132 85 1
200.6323 0.3105 320.2501 47 50 54 2
199.8717 0.4105 325.1257 47 50 54 2
199.7471 0.5041 329.4517 107 132 85 1
200.6315 0.6287 334.6175 107 132 85 1
199.5366 0.7461 344.3994 107 132 85 1
199.6664 0.7884 349.7388 47 50 54 2
199.7285 0.7991 354.7401 47 50 54 2
199.4794 0.7389 364.7947 107 132 85 1
199.3922 0.6850 369.3384 107 132 85 1
200.3196 0.6182 374.6747 107 132 85 1
199.6855 0.5198 380.2414 107 132 85 1
205.5445 -0.6944 0.0000 47 50 54 2
204.3377 -0.7151 4.6737 174 174 166 3
205.2938 -0.7844 9.7668 107 132 85 1
204.4386 -0.7939 14.4042 107 132 85 1
205.1969 -0.8232 25.5350 107 132 85 1
204.8768 -0.7902 29.8682 107 132 85 1
204.9941 -0.1605 59.4889 107 132 85 1
204.9955 -0.0122 64.6511 107 132 85 1
204.6708 0.1176 69.4351 107 132 85 1
204.4342 0.2454 74.5590 107 132 85 1
204.6450 0.5793 95.2606 107 132 85 1
204.9595 0.6181 100.5662 107 132 85 1
205.3838 0.6422 105.0403 107 132 85 1
205.1603 0.6567 109.8534 47 50 54 2
204.8215 0.6648 114.9198 47 50 54 2
204.3565 0.6670 120.1897 107 132 85 1
204.7608 0.6808 124.7319 174 174 166 3
204.3446 0.6809 130.4255 47 50 54 2
204.9004 0.6989 135.4092 47 50 54 2
205.6882 0.7190 139.5849 47 50 54 2
204.6122 0.6884 144.4867 47 50 54 2
204.3908 0.6652 149.7822 174 174 166 3
205.2663 0.6464 155.0586 107 132 85 1
204.7469 0.5895 159.5331 174 174 166 3
205.6028 0.5220 164.7345 47 50 54 2
205.1466 0.4111 170.1785 174 174 166 3
204.8151 0.2915 175.2461 174 174 166 3
204.4413 0.1582 180.3422 47 50 54 2
205.3168 0.0317 184.5952 174 174 166 3
205.1893 -0.1400 190.4481 47 50 54 2
205.0755 -0.2509 194.3180 47 50 54 2
204.8398 -0.4149 200.5040 174 174 166 3
204.7459 -0.6300 210.6092 174 174 166 3
204.3845 -0.6916 215.0310 47 50 54 2
204.8651 -0.7441 219.5260 47 50 54 2
205.0658 -0.7757 224.5276 47 50 54 2
205.1251 -0.7844 229.5003 47 50 54 2
205.5813 -0.7749 235.5981 174 174 166 3
205.1653 -0.7529 239.4159 107 132 85 1
204.9653 -0.7101 245.6966 47 50 54 2
205.1632 -0.6800 250.1274 47 50 54 2
204.3145 -0.6348 254.3609 174 174 166 3
205.4425 -0.6130 259.7178 107 132 85 1
205.1796 -0.5331 269.8514 107 132 85 1
204.7528 -0.0084 305.3345 107 132 85 1
204.7257 0.0976 309.5865 107 132 85 1
205.2810 0.2383 314.6437 107 132 85 1
204.8594 0.3677 319.6608 47 50 54 2
205.2139 0.5098 324.8779 47 50 54 2
204.7276 0.6085 329.3995 107 132 85 1
204.7790 0.7208 334.8549 107 132 85 1
204.4371 0.8453 344.7060 107 132 85 1
204.8302 0.8791 350.5263 47 50 54 2
205.6674 0.8867 354.3463 47 50 54 2
205.6323 0.8135 364.3055 107 132 85 1
205.0285 0.7444 369.3572 107 132 85 1
204.3442 0.5823 379.4372 107 132 85 1
210.4030 -0.7983 0.2452 47 50 54 2
210.5987 -0.8584 4.8047 174 174 166 3
209.8090 -0.9273 20.3236 107 132 85 1
210.6258 -0.9207 24.9087 107 132 85 1
210.5459 0.4744 85.4668 107 132 85 1
209.9604 0.5424 90.4983 107 132 85 1
210.4218 0.5941 95.3212 107 132 85 1
210.4142 0.6367 100.3105 107 132 85 1
210.6462 0.7028 110.0401 174 174 166 3
209.6919 0.7211 114.9280 47 50 54 2
210.3809 0.7573 120.2517 47 50 54 2
209.6655 0.7715 125.5760 47 50 54 2
210.2379 0.8007 130.1898 47 50 54 2
209.3154 0.7959 135.1963 47 50 54 2
209.4913 0.8030 140.2218 174 174 166 3
210.6135 0.8158 144.6912 107 132 85 1
209.6033 0.6480 159.7621 47 50 54 2
209.3359 0.5342 165.5347 47 50 54 2
210.3852 0.4255 170.1431 107 132 85 1
210.6557 0.3042 174.4626 174 174 166 3
209.8901 0.1304 180.2970 47 50 54 2
209.7766 -0.0274 185.3325 174 174 166 3
209.5863 -0.1639 189.7450 174 174 166 3
209.9184 -0.3304 195.2241 47 50 54 2
209.5595 -0.4695 200.5520 47 50 54 2
209.7432 -0.6741 210.4287 107 132 85 1
209.8230 -0.7433 215.5336 107 132 85 1
210.4485 -0.7889 220.4337 174 174 166 3
210.5800 -0.8119 225.3440 47 50 54 2
210.0004 -0.8154 230.1686 47 50 54 2
209.5374 -0.8065 234.6940 47 50 54 2
209.6444 -0.7908 239.5889 174 174 166 3
209.7640 -0.7697 244.4966 47 50 54 2
210.0601 -0.7450 250.0421 174 174 166 3
209.4601 -0.6822 259.7288 107 132 85 1
209.7921 -0.6504 265.6876 107 132 85 1
210.5006 0.0195 305.0837 107 132 85 1
209.9208 0.1711 310.3720 107 132 85 1
209.3875 0.3034 315.0148 174 174 166 3
210.4863 0.4549 319.6692 47 50 54 2
210.5439 0.6058 325.1849 174 174 166 3
209.6052 0.8694 339.6945 107 132 85 1
210.0629 0.9226 345.5403 174 174 166 3
209.7662 0.9312 349.7450 47 50 54 2
209.6513 0.9194 354.9178 47 50 54 2
209.6137 0.8352 364.8542 107 132 85 1
210.1264 0.7782 369.5932 107 132 85 1
210.4499 0.6272 380.2943 107 132 85 1
215.4522 -0.8859 0.0000 47 50 54 2
215.0768 -0.9384 4.4444 174 174 166 3
215.0391 -0.9875 9.6806 107 132 85 1
214.3682 -0.9671 24.5598 107 132 85 1
215.2651 -0.8964 30.4379 107 132 85 1
215.0621 -0.8186 34.5466 107 132 85 1
214.3878 0.0461 65.4996 107 132 85 1
214.3341 0.1610 69.9251 107 132 85 1
214.4430 0.2650 74.3877 107 132 85 1
215.1526 0.3744 79.9469 107 132 85 1
215.5961 0.5812 94.5104 107 132 85 1
214.7134 0.7247 109.3139 174 174 166 3
214.7246 0.7715 114.7504 47 50 54 2
215.5650 0.8237 119.8510 47 50 54 2
214.7680 0.8509 124.8818 47 50 54 2
214.9475 0.8847 130.1024 174 174 166 3
214.4823 0.8949 135.1883 107 132 85 1
215.3696 0.9106 140.2689 107 132 85 1
215.2018 0.8508 149.6067 107 132 85 1
214.4147 0.7661 155.3147 174 174 166 3
214.6209 0.6654 160.6801 47 50 54 2
215.4701 0.5680 164.8059 174 174 166 3
214.8169 0.2755 174.8287 174 174 166 3
214.8123 0.1135 179.8084 47 50 54 2
214.5605 -0.0732 185.5447 174 174 166 3
215.0187 -0.2067 189.6339 107 132 85 1
215.2834 -0.3845 195.6561 174 174 166 3
214.3873 -0.4897 199.9400 47 50 54 2
215.3327 -0.6101 205.3539 174 174 166 3
214.3030 -0.6774 209.3744 107 132 85 1
215.1249 -0.8167 224.5534 107 132 85 1
214.5911 -0.8291 230.3649 174 174 166 3
215.4629 -0.8318 234.6975 47 50 54 2
215.4685 -0.8269 240.5271 47 50 54 2
215.3543 -0.8191 244.7918 47 50 54 2
214.8752 -0.8007 250.5952 174 174 166 3
214.3116 -0.6976 269.5048 107 132 85 1
214.9082 -0.2553 294.8364 107 132 85 1
214.9185 -0.1237 299.4081 107 132 85 1
215.5616 0.0360 304.3929 107 132 85 1
215.5207 0.1971 309.3627 107 132 85 1
215.5118 0.3642 314.5685 174 174 166 3
215.3174 0.5060 319.3089 47 50 54 2
215.3310 0.6562 324.8342 174 174 166 3
214.5892 0.9200 340.5366 107 132 85 1
214.8982 0.9496 345.2367 107 132 85 1
215.2267 0.9554 349.7905 47 50 54 2
215.4197 0.9406 354.5424 47 50 54 2
215.2201 0.9080 359.4005 107 132 85 1
215.6450 0.7451 374.4752 107 132 85 1
220.4072 -0.9558 0.0000 47 50 54 2
220.3885 -1.0160 4.7598 174 174 166 3
219.8233 -0.9059 30.2118 107 132 85 1
219.3668 -0.8050 35.0114 107 132 85 1
220.5191 -0.2236 55.5264 107 132 85 1
220.2223 -0.0825 60.5571 107 132 85 1
220.1022 0.2720 75.6126 107 132 85 1
220.5201 0.6342 99.7698 174 174 166 3
219.5055 0.7038 105.4077 47 50 54 2
219.4709 0.7664 110.6816 47 50 54 2
219.3030 0.8167 115.1708 47 50 54 2
219.6991 0.8756 120.3121 47 50 54 2
220.0639 0.9283 125.5660 174 174 166 3
219.4744 0.9478 129.4143 107 132 85 1
219.3427 0.9680 135.4269 107 132 85 1
219.5568 0.9344 145.4274 107 132 85 1
219.6440 0.8813 150.1029 174 174 166 3
220.2535 0.7887 155.5416 47 50 54 2
220.5003 0.6968 159.5974 47 50 54 2
219.8631 0.3842 170.5519 107 132 85 1
219.4128 0.2619 174.3904 174 174 166 3
219.3023 0.0816 179.8131 47 50 54 2
220.2605 -0.0963 185.0453 174 174 166 3
220.2357 -0.5057 200.0215 47 50 54 2
219.7092 -0.6101 205.3247 47 50 54 2
219.3382 -0.6814 209.8357 174 174 166 3
219.6333 -0.7804 219.6934 107 132 85 1
220.4623 -0.8082 225.1083 107 132 85 1
219.9244 -0.8409 235.2003 47 50 54 2
219.3578 -0.8465 240.2244 47 50 54 2
220.4821 -0.8573 245.4483 47 50 54 2
220.2905 -0.8573 250.0827 47 50 54 2
219.4703 -0.8432 255.3427 47 50 54 2
220.5829 -0.8406 260.4898 174 174 166 3
220.6508 -0.8195 264.5776 107 132 85 1
219.6856 -0.7610 270.1897 107 132 85 1
220.3366 -0.6097 280.5495 107 132 85 1
219.4312 -0.3846 289.9595 107 132 85 1
219.6212 -0.2305 295.2232 107 132 85 1
220.5782 -0.0485 300.6747 107 132 85 1
220.3002 0.0942 304.9654 107 132 85 1
219.7817 0.2549 309.8781 107 132 85 1
219.5299 0.4284 315.3406 47 50 54 2
219.6576 0.5672 320.0289 47 50 54 2
219.5644 0.6822 324.5104 174 174 166 3
220.3768 0.8698 334.5678 107 132 85 1
220.5922 0.9236 340.0743 107 132 85 1
220.2531 0.9459 344.5687 107 132 85 1
220.2243 0.9489 349.3489 47 50 54 2
220.2323 0.9332 354.3984 47 50 54 2
220.2183 0.9021 359.5778 107 132 85 1
219.5098 0.7607 374.8970 107 132 85 1
225.1890 -0.9997 0.0000 47 50 54 2
224.3963 -1.0486 4.6515 174 174 166 3
225.6195 -1.0830 9.6460 107 132 85 1
224.4932 -1.0772 15.5404 107 132 85 1
224.6871 -1.0383 20.6507 107 132 85 1
225.3383 -0.9771 24.9802 107 132 85 1
225.0185 -0.7637 35.3612 107 132 85 1
224.3363 -0.2166 55.4219 107 132 85 1
225.6776 -0.1033 59.7369 107 132 85 1
225.3555 0.2244 74.8777 107 132 85 1
224.4502 0.3243 80.1305 107 132 85 1
225.6475 0.4833 90.6773 174 174 166 3
224.5863 0.5612 95.3873 47 50 54 2
225.4027 0.6345 100.3445 47 50 54 2
225.3856 0.7162 105.5879 47 50 54 2
224.6399 0.7864 110.3436 47 50 54 2
224.8597 0.9237 120.4039 47 50 54 2
224.6339 0.9655 124.5508 47 50 54 2
225.5645 1.0086 129.4248 47 50 54 2
224.7151 1.0182 134.3014 107 132 85 1
225.1322 1.0061 140.1957 107 132 85 1
225.5925 0.9654 144.9423 107 132 85 1
224.9654 0.8869 150.3156 47 50 54 2
225.0567 0.7895 155.1138 47 50 54 2
224.6536 0.6851 159.4245 174 174 166 3
225.6899 0.1932 175.0797 174 174 166 3
225.3592 0.0417 179.8148 47 50 54 2
225.3486 -0.1207 185.0621 174 174 166 3
224.3785 -0.2678 190.3031 107 132 85 1
225.5804 -0.4977 200.3875 174 174 166 3
225.1746 -0.5699 204.3659 47 50 54 2
225.2403 -0.6423 209.4148 47 50 54 2
224.9093 -0.7561 220.6341 107 132 85 1
225.2071 -0.8116 229.4663 174 174 166 3
225.3134 -0.8444 235.6948 47 50 54 2
224.3475 -0.8623 239.9879 47 50 54 2
224.6901 -0.8926 250.2308 47 50 54 2
225.4435 -0.8995 255.4437 47 50 54 2
225.6453 -0.8918 259.5238 47 50 54 2
225.2516 -0.8561 265.1829 47 50 54 2
225.0947 -0.7980 270.5998 174 174 166 3
225.5475 -0.7195 275.6940 107 132 85 1
225.0083 -0.6168 280.6571 107 132 85 1
224.8678 -0.4961 285.4922 107 132 85 1
225.5775 -0.3810 289.3916 107 132 85 1
225.2253 -0.0343 300.0385 107 132 85 1
225.6103 0.3173 310.3854 174 174 166 3
225.0898 0.4464 314.6670 47 50 54 2
224.3899 0.5786 319.5112 47 50 54 2
225.5361 0.6997 324.6391 107 132 85 1
225.4926 0.8024 330.4618 107 132 85 1
224.3438 0.8678 335.2736 107 132 85 1
225.3948 0.9160 345.3801 107 132 85 1
225.6790 0.9121 350.5622 47 50 54 2
224.7649 0.9054 355.2501 47 50 54 2
224.3376 0.7746 375.6801 107 132 85 1
224.7849 0.7358 380.6814 107 132 85 1
230.0585 -1.0224 0.5303 47 50 54 2
229.5666 -1.0605 4.7433 174 174 166 3
229.4135 -0.9412 25.0234 107 132 85 1
229.3025 -0.7466 34.3331 107 132 85 1
230.3511 -0.0985 60.2837 107 132 85 1
229.4708 -0.0075 64.4305 107 132 85 1
230.1610 0.3536 84.8482 174 174 166 3
229.4428 0.4473 90.0619 47 50 54 2
230.0993 0.5405 95.6683 47 50 54 2
230.5503 0.6105 99.6608 47 50 54 2
230.5748 0.7180 105.5682 107 132 85 1
230.1814 0.9453 119.8619 174 174 166 3
230.4548 1.0035 125.4048 47 50 54 2
229.6816 1.0290 129.9973 47 50 54 2
230.4175 1.0334 134.8023 174 174 166 3
229.4216 1.0098 139.9883 107 132 85 1
230.4897 0.9571 144.4511 174 174 166 3
229.7743 0.8571 150.6143 47 50 54 2
229.6468 0.7556 155.1766 47 50 54 2
229.3452 0.6480 159.3911 107 132 85 1
230.0445 0.4812 164.8333 107 132 85 1
229.3229 0.3180 170.2869 107 132 85 1
229.8007 0.1772 174.6186 174 174 166 3
230.4452 0.0254 179.4829 47 50 54 2
229.8755 -0.1263 184.9050 174 174 166 3
230.2583 -0.2553 190.0115 107 132 85 1
230.5561 -0.4495 199.6896 107 132 85 1
230.4163 -0.5411 205.5406 47 50 54 2
230.5254 -0.5966 209.9424 47 50 54 2
229.5107 -0.6650 215.1098 174 174 166 3
229.5657 -0.7148 220.3743 107 132 85 1
230.2150 -0.7452 224.4483 174 174 166 3
230.1965 -0.7876 229.4153 47 50 54 2
229.8947 -0.8377 235.5884 47 50 54 2
230.4056 -0.9255 255.1731 174 174 166 3
229.5352 -0.9087 260.3231 47 50 54 2
229.5778 -0.8750 265.0870 47 50 54 2
229.8267 -0.8215 269.6323 47 50 54 2
229.3137 -0.7396 274.5835 174 174 166 3
230.0364 -0.6099 280.3131 107 132 85 1
229.4198 -0.5054 284.3696 107 132 85 1
229.8920 -0.1690 294.9490 107 132 85 1
229.5382 0.1867 305.6001 107 132 85 1
229.9445 0.3258 309.9476 174 174 166 3
229.4766 0.4615 314.7138 47 50 54 2
230.4751 0.5975 320.3432 174 174 166 3
229.8663 0.6813 324.4261 107 132 85 1
230.1708 0.8211 335.5372 107 132 85 1
229.6108 0.8739 349.8331 47 50 54 2
229.8838 0.8642 355.1153 47 50 54 2
230.2721 0.8494 360.0408 107 132 85 1
235.3031 -0.9993 0.0621 47 50 54 2
234.6932 -1.0356 5.4108 174 174 166 3
235.1135 -1.0291 10.2033 107 132 85 1
235.0237 -0.6483 35.3894 107 132 85 1
234.4192 -0.2221 54.6944 107 132 85 1
235.1853 -0.0421 64.3045 107 132 85 1
234.3901 0.0518 69.3831 107 132 85 1
235.1249 0.1475 75.4439 174 174 166 3
234.7289 0.2242 79.7430 47 50 54 2
235.2775 0.3034 84.5437 47 50 54 2
235.4121 0.3927 89.4293 47 50 54 2
235.0903 0.5093 95.3231 174 174 166 3
234.4489 0.6036 99.9347 107 132 85 1
235.4625 0.6976 104.8032 107 132 85 1
235.1664 0.8041 110.3982 107 132 85 1
235.1713 0.9976 125.0376 174 174 166 3
234.9095 1.0203 130.2778 47 50 54 2
234.3467 1.0147 135.4397 47 50 54 2
235.3675 0.9631 140.6243 174 174 166 3
235.6448 0.9047 144.5992 47 50 54 2
234.7604 0.8097 150.2662 47 50 54 2
235.0874 0.6928 155.0528 174 174 166 3
235.4026 0.4155 164.9604 107 132 85 1
234.5562 0.1207 175.4477 174 174 166 3
235.3733 0.0088 179.4842 47 50 54 2
235.5959 -0.1285 185.1760 174 174 166 3
235.1435 -0.3184 194.5379 107 132 85 1
234.6122 -0.4027 199.3236 107 132 85 1
234.8882 -0.4736 204.4948 174 174 166 3
234.7658 -0.5423 209.8132 47 50 54 2
234.8660 -0.6057 215.4114 47 50 54 2
234.4673 -0.6679 220.6410 174 174 166 3
235.3278 -0.7077 225.0532 47 50 54 2
235.4208 -0.7585 229.7428 47 50 54 2
234.5735 -0.8215 235.3932 174 174 166 3
235.2033 -0.8595 239.7285 107 132 85 1
234.7704 -0.9024 245.3662 107 132 85 1
235.2161 -0.9244 250.4740 107 132 85 1
235.0163 -0.9286 254.7190 107 132 85 1
234.6064 -0.9109 260.1484 107 132 85 1
235.4608 -0.8667 264.8436 174 174 166 3
235.2427 -0.7892 270.3450 47 50 54 2
234.7139 -0.6901 275.5469 47 50 54 2
234.4511 -0.5839 280.0020 47 50 54 2
234.3696 -0.4335 285.3623 174 174 166 3
235.1038 -0.2947 289.5865 107 132 85 1
235.5961 0.3383 310.0368 47 50 54 2
235.1848 0.4604 314.9939 47 50 54 2
234.6540 0.5544 319.3206 174 174 166 3
234.3549 0.6523 324.9006 107 132 85 1
235.2972 0.7436 334.5905 107 132 85 1
234.3844 0.8146 350.3162 47 50 54 2
235.5340 0.8045 355.2982 47 50 54 2
234.3012 0.8149 365.1186 107 132 85 1
235.4867 0.8035 370.6589 107 132 85 1
235.5308 0.7935 375.1924 107 132 85 1
239.9079 -0.9518 0.0000 47 50 54 2
240.3101 -0.9600 5.5160 174 174 166 3
240.0912 -0.9495 10.0442 107 132 85 1
240.5787 -0.8942 15.4524 107 132 85 1
239.3293 -0.7938 24.3906 107 132 85 1
240.2485 -0.6823 29.5850 107 132 85 1
239.9853 -0.5912 34.5908 107 132 85 1
239.8003 -0.4836 40.2435 107 132 85 1
240.4424 -0.2162 55.1952 107 132 85 1
240.4976 -0.1323 60.6276 107 132 85 1
239.3116 0.0188 69.9209 107 132 85 1
240.6570 0.0889 75.0266 47 50 54 2
239.9223 0.1801 79.9618 47 50 54 2
239.4391 0.2759 84.9340 47 50 54 2
239.4750 0.4669 94.3968 107 132 85 1
240.0960 0.6863 104.9518 107 132 85 1
240.5177 0.9574 124.4203 107 132 85 1
239.6426 0.9796 129.4698 174 174 166 3
240.5007 0.9505 134.5190 47 50 54 2
240.2959 0.9034 139.7494 47 50 54 2
240.6260 0.8051 145.6706 47 50 54 2
240.6531 0.7142 150.1556 174 174 166 3
240.5726 0.6178 154.4154 174 174 166 3
239.4386 0.2440 169.5343 107 132 85 1
240.1968 0.1023 175.0553 174 174 166 3
240.6377 -0.0181 180.5025 47 50 54 2
240.3548 -0.1132 185.3436 174 174 166 3
240.6350 -0.1948 190.2040 107 132 85 1
239.7736 -0.2721 194.6305 107 132 85 1
240.0951 -0.3397 199.7233 107 132 85 1
239.6185 -0.4810 210.3195 47 50 54 2
240.3502 -0.5290 214.9754 47 50 54 2
239.7134 -0.5997 219.8859 47 50 54 2
239.9512 -0.6644 225.0880 47 50 54 2
240.3397 -0.7326 230.6321 107 132 85 1
239.7692 -0.7948 235.4357 107 132 85 1
239.8883 -0.8376 239.5377 107 132 85 1
239.5398 -0.8338 264.8485 107 132 85 1
239.3554 -0.7541 270.0524 174 174 166 3
239.4145 -0.6635 274.4211 174 174 166 3
239.5768 -0.5324 279.6304 47 50 54 2
239.7802 -0.3960 284.4030 47 50 54 2
239.6598 -0.2431 289.5644 47 50 54 2
240.5030 -0.0521 295.5956 174 174 166 3
240.0387 0.0874 300.5303 107 132 85 1
239.8174 0.2240 305.6349 174 174 166 3
240.1914 0.3187 309.6045 47 50 54 2
240.3480 0.4327 315.2850 174 174 166 3
240.1682 0.5179 320.4299 107 132 85 1
239.9233 0.5733 324.4218 107 132 85 1
240.0603 0.6326 330.6936 107 132 85 1
239.8512 0.6913 339.3130 107 132 85 1
239.7322 0.7176 344.8375 107 132 85 1
239.7044 0.7369 350.0338 47 50 54 2
240.4089 0.7445 355.1437 47 50 54 2
239.8090 0.7823 374.7337 107 132 85 1
245.6860 -0.8518 0.0000 47 50 54 2
244.7966 -0.8697 5.2085 174 174 166 3
245.6804 -0.7830 14.4346 107 132 85 1
244.7954 -0.7453 19.4403 107 132 85 1
245.1295 -0.5108 34.4178 107 132 85 1
245.2113 -0.4153 40.6891 107 132 85 1
244.4904 -0.2282 54.6787 107 132 85 1
244.8438 -0.0897 65.4176 107 132 85 1
245.4969 0.0387 74.4172 47 50 54 2
245.0262 0.1367 79.8655 174 174 166 3
244.4236 0.3517 90.3708 107 132 85 1
245.1183 0.4514 95.1411 107 132 85 1
244.9483 0.5592 100.0615 107 132 85 1
245.5196 0.6532 104.8133 107 132 85 1
245.3718 0.8867 130.4410 107 132 85 1
245.2775 0.8606 134.6541 107 132 85 1
244.9581 0.7969 140.6373 47 50 54 2
244.7192 0.7276 145.1869 47 50 54 2
244.6258 0.6455 149.5053 47 50 54 2
245.5051 0.4970 155.4999 47 50 54 2
245.3004 0.3868 160.5817 47 50 54 2
245.5094 0.2886 164.8838 174 174 166 3
244.7884 0.1927 169.7293 174 174 166 3
244.9824 0.0860 175.0646 174 174 166 3
244.8543 0.0043 179.6634 47 50 54 2
245.1998 -0.0825 185.3221 174 174 166 3
244.8456 -0.1470 189.7461 174 174 166 3
245.0785 -0.2153 195.3033 174 174 166 3
244.7434 -0.2739 199.7206 174 174 166 3
244.4332 -0.3463 205.2388 47 50 54 2
244.3320 -0.4102 210.1373 47 50 54 2
244.3984 -0.4698 214.6597 47 50 54 2
245.6054 -0.5309 220.0553 47 50 54 2
245.6737 -0.6013 224.8761 174 174 166 3
244.3247 -0.6857 229.7737 107 132 85 1
245.2277 -0.7405 234.5794 107 132 85 1
245.2147 -0.8056 240.5568 107 132 85 1
244.6974 -0.8520 255.6164 107 132 85 1
244.7629 -0.8247 259.4759 107 132 85 1
244.7660 -0.7675 264.4027 107 132 85 1
245.2359 -0.6545 270.4837 107 132 85 1
244.5182 -0.5610 275.3532 107 132 85 1
245.1264 -0.4396 279.7981 107 132 85 1
244.8675 -0.3133 284.6868 47 50 54 2
244.7789 -0.1842 289.4249 47 50 54 2
244.9924 -0.0187 295.5181 47 50 54 2
245.2758 0.0866 299.7119 47 50 54 2
245.1177 0.2163 305.6128 47 50 54 2
244.5453 0.2967 309.6434 47 50 54 2
245.0310 0.3757 314.8129 174 174 166 3
245.6015 0.4392 320.6408 107 132 85 1
245.4313 0.5882 340.4405 107 132 85 1
244.5308 0.6352 345.6141 174 174 166 3
244.7153 0.6595 350.4451 47 50 54 2
244.4690 0.6916 355.4702 47 50 54 2
244.3713 0.7384 364.8841 107 132 85 1
244.5407 0.7531 374.7578 107 132 85 1
249.3504 -0.7667 0.2510 47 50 54 2
250.0970 -0.7320 5.3695 174 174 166 3
249.3270 -0.3819 39.6675 107 132 85 1
249.3650 -0.3232 45.3039 107 132 85 1
249.6944 -0.2293 55.0264 107 132 85 1
249.4921 -0.1205 65.1077 107 132 85 1
249.7194 -0.0600 69.7999 107 132 85 1
250.4850 0.1008 79.8416 107 132 85 1
249.8092 0.2138 85.3822 107 132 85 1
250.6181 0.3160 90.4404 107 132 85 1
250.0257 0.7537 114.6763 107 132 85 1
250.6957 0.7854 124.9537 107 132 85 1
250.5021 0.7688 130.3487 107 132 85 1
250.6594 0.7276 134.6313 47 50 54 2
249.6690 0.6913 139.7327 47 50 54 2
250.1663 0.5884 145.3559 174 174 166 3
250.2695 0.5052 149.8515 174 174 166 3
249.8719 0.4045 155.6691 47 50 54 2
250.0892 0.3093 160.5472 47 50 54 2
249.3613 0.2488 164.4716 47 50 54 2
249.4768 0.1479 170.3927 47 50 54 2
250.0059 0.0708 175.5993 47 50 54 2
250.3709 0.0100 180.6019 47 50 54 2
250.0533 -0.0449 185.3794 47 50 54 2
250.2745 -0.0881 189.7227 47 50 54 2
249.9546 -0.1424 194.5950 47 50 54 2
249.9792 -0.2030 200.1624 47 50 54 2
249.3854 -0.2619 204.3894 47 50 54 2
249.9919 -0.3280 210.0947 174 174 166 3
249.3086 -0.3986 214.3576 174 174 166 3
250.0337 -0.4695 219.6475 47 50 54 2
250.2593 -0.5528 225.2006 174 174 166 3
250.2396 -0.6908 235.1613 107 132 85 1
249.7796 -0.7867 249.8204 107 132 85 1
250.2651 -0.7579 255.3119 107 132 85 1
249.9918 -0.7260 259.6457 107 132 85 1
249.9022 -0.6555 265.0517 107 132 85 1
250.5078 -0.5400 270.6801 107 132 85 1
249.5754 -0.3468 280.2343 107 132 85 1
249.9868 -0.2254 284.9873 107 132 85 1
249.3786 -0.1000 290.6289 174 174 166 3
250.0171 -0.0034 294.7434 47 50 54 2
249.9755 0.0914 299.5405 47 50 54 2
249.6906 0.1872 305.1007 47 50 54 2
249.5961 0.2566 309.9031 47 50 54 2
249.5199 0.3994 324.6074 107 132 85 1
250.1850 0.4849 339.5405 107 132 85 1
250.2163 0.5648 350.0640 47 50 54 2
250.2050 0.5996 354.3691 47 50 54 2
250.6660 0.6706 379.6271 107 132 85 1
255.0954 -0.6041 0.1854 47 50 54 2
254.9710 -0.5861 4.9054 174 174 166 3
254.6237 -0.5610 10.0637 107 132 85 1
254.4652 -0.4727 20.4814 107 132 85 1
255.2990 -0.4064 25.5874 107 132 85 1
255.2707 -0.3144 39.5689 107 132 85 1
254.8426 -0.2923 44.4624 107 132 85 1
255.0010 -0.2585 50.4804 107 132 85 1
255.4708 -0.1458 64.7937 107 132 85 1
255.5517 0.1630 84.3243 107 132 85 1
254.3590 0.2861 90.0900 107 132 85 1
254.7685 0.3946 95.5894 107 132 85 1
254.4246 0.5689 105.2930 107 132 85 1
254.8251 0.6836 119.9715 107 132 85 1
255.0610 0.6443 129.6421 174 174 166 3
254.5099 0.6105 134.9737 47 50 54 2
255.5664 0.5115 140.2071 47 50 54 2
255.4182 0.4481 144.9591 107 132 85 1
254.6130 0.3116 155.3525 107 132 85 1
254.6460 0.2441 160.0478 174 174 166 3
254.6656 0.1790 165.1399 174 174 166 3
254.7174 0.1245 170.0626 47 50 54 2
254.3265 0.0782 174.9710 47 50 54 2
254.9174 0.0431 179.3128 47 50 54 2
254.9009 0.0004 184.9206 47 50 54 2
255.5534 -0.0347 190.3560 174 174 166 3
254.8170 -0.0880 195.4863 174 174 166 3
254.6477 -0.1386 200.2278 174 174 166 3
254.6150 -0.3393 215.0964 107 132 85 1
254.4929 -0.4193 220.1094 47 50 54 2
254.7973 -0.5012 225.6881 47 50 54 2
254.7511 -0.5533 229.3004 174 174 166 3
255.2424 -0.6407 255.4119 107 132 85 1
255.4236 -0.5923 259.6641 107 132 85 1
255.1282 -0.2539 279.4765 107 132 85 1
254.8215 0.0264 295.1431 107 132 85 1
255.0461 0.0933 300.0191 47 50 54 2
254.3010 0.1526 304.8198 47 50 54 2
255.6484 0.1874 310.4456 47 50 54 2
255.3562 0.2247 315.4637 47 50 54 2
254.3075 0.2684 319.4767 107 132 85 1
255.5899 0.2760 325.5119 107 132 85 1
255.4412 0.3061 330.0312 107 132 85 1
255.1075 0.3516 335.5897 107 132 85 1
254.5101 0.4040 340.6178 107 132 85 1
254.7049 0.4354 344.6273 107 132 85 1
255.6680 0.4742 350.5931 47 50 54 2
254.4775 0.5419 355.6550 47 50 54 2
255.6212 0.6090 370.0751 107 132 85 1
255.2199 0.5879 380.5753 107 132 85 1
259.5266 -0.4614 0.0000 47 50 54 2
259.6783 -0.4320 4.4020 174 174 166 3
259.5833 -0.3995 9.8058 174 174 166 3
260.2786 -0.3451 14.5239 47 50 54 2
260.3985 -0.3131 19.3634 47 50 54 2
260.4093 -0.2896 24.3371 47 50 54 2
260.2483 -0.2738 30.3023 47 50 54 2
260.5686 -0.2593 35.0234 47 50 54 2
259.9264 -0.2609 39.9963 174 174 166 3
259.3201 -0.2581 44.7549 174 174 166 3
259.5229 -0.2453 49.3595 174 174 166 3
260.5810 -0.2223 54.5664 47 50 54 2
260.3160 -0.1878 60.4506 47 50 54 2
260.4367 -0.1467 65.0560 47 50 54 2
259.6447 -0.0950 69.5211 174 174 166 3
260.2646 -0.0230 74.6214 47 50 54 2
259.4314 0.0730 80.2874 107 132 85 1
259.5701 0.2509 89.9964 107 132 85 1
260.0783 0.3460 95.6991 107 132 85 1
259.4043 0.4857 105.0372 107 132 85 1
259.4259 0.5527 114.5447 107 132 85 1
260.6210 0.5190 120.0183 107 132 85 1
260.1482 0.4742 130.1216 47 50 54 2
259.4440 0.4486 135.0667 47 50 54 2
259.4659 0.3962 139.5192 174 174 166 3
259.3644 0.3334 144.9041 107 132 85 1
259.6113 0.2642 150.1836 107 132 85 1
260.6285 0.1971 154.5385 107 132 85 1
260.6069 0.1499 160.6505 107 132 85 1
260.6932 0.1223 165.1776 107 132 85 1
260.2242 0.0841 174.5862 174 174 166 3
260.3715 0.0658 179.7371 47 50 54 2
260.0548 0.0440 184.5692 174 174 166 3
260.5861 -0.0655 200.2563 107 132 85 1
259.8547 -0.1945 209.8725 107 132 85 1
260.1359 -0.3419 220.0699 174 174 166 3
260.3570 -0.4118 225.2596 47 50 54 2
259.4665 -0.4807 229.5727 47 50 54 2
259.9096 -0.5200 234.3220 107 132 85 1
260.2410 -0.5465 239.9866 107 132 85 1
260.3617 -0.5500 245.1397 107 132 85 1
259.3605 -0.5640 249.8958 107 132 85 1
259.5919 -0.5164 255.5325 107 132 85 1
260.5449 -0.4319 260.4271 107 132 85 1
259.6213 -0.3083 270.6029 107 132 85 1
259.6475 -0.1651 279.3355 107 132 85 1
260.2982 -0.0711 285.0639 107 132 85 1
260.3566 -0.0151 289.6789 107 132 85 1
260.2472 0.0315 294.4877 174 174 166 3
259.4864 0.0773 300.1408 47 50 54 2
260.6035 0.0956 305.0275 174 174 166 3
259.4134 0.1294 309.5878 47 50 54 2
259.6635 0.1434 314.3347 47 50 54 2
259.3056 0.1707 319.8317 174 174 166 3
259.9646 0.1803 325.0907 174 174 166 3
259.7833 0.2097 329.6217 174 174 166 3
260.1514 0.2391 334.7938 47 50 54 2
259.4347 0.2967 339.7450 174 174 166 3
260.0031 0.3388 345.1388 47 50 54 2
259.4927 0.3981 349.9456 47 50 54 2
259.9423 0.4430 355.3359 47 50 54 2
260.0256 0.4804 359.9938 47 50 54 2
260.6849 0.4953 364.6614 47 50 54 2
259.8072 0.5277 369.7417 174 174 166 3
259.4176 0.5302 374.9699 174 174 166 3
259.4644 0.5027 379.8652 174 174 166 3
264.9789 -0.2692 0.4574 47 50 54 2
264.9358 -0.2463 4.6998 47 50 54 2
264.8058 -0.2198 10.5677 47 50 54 2
265.1122 -0.1900 15.6504 47 50 54 2
265.6041 -0.1677 19.3652 47 50 54 2
265.1129 -0.1768 24.9308 47 50 54 2
264.4179 -0.1941 29.5721 47 50 54 2
264.7223 -0.1971 35.1132 47 50 54 2
265.4896 -0.1987 40.4252 47 50 54 2
264.9987 -0.2118 45.5255 47 50 54 2
265.6245 -0.2070 50.6952 47 50 54 2
265.2650 -0.2021 54.3356 47 50 54 2
265.2138 -0.1775 59.8042 47 50 54 2
265.5221 -0.1329 65.3344 47 50 54 2
265.0845 -0.0824 70.1187 47 50 54 2
265.0092 -0.0229 74.6486 47 50 54 2
265.1467 0.0524 79.7460 47 50 54 2
265.4039 0.2126 90.4318 107 132 85 1
265.4657 0.3242 99.9899 107 132 85 1
264.7258 0.3810 105.6450 107 132 85 1
264.8631 0.3472 125.1623 174 174 166 3
265.2564 0.2935 129.9229 47 50 54 2
265.3290 0.2407 135.3816 174 174 166 3
265.3679 0.1953 140.2671 107 132 85 1
264.3949 0.1860 144.8920 107 132 85 1
264.8864 0.1391 149.5446 107 132 85 1
264.4107 0.1171 155.6589 107 132 85 1
264.5568 0.0871 174.8526 174 174 166 3
264.6565 0.0839 180.0362 47 50 54 2
265.0739 0.0784 184.4307 174 174 166 3
265.3194 -0.0189 200.4694 107 132 85 1
265.5271 -0.0724 205.4732 107 132 85 1
264.3562 -0.1511 210.6198 107 132 85 1
265.6632 -0.1882 214.5733 107 132 85 1
264.3538 -0.3417 225.1324 47 50 54 2
264.6405 -0.3787 229.3851 47 50 54 2
264.6130 -0.4173 234.9238 174 174 166 3
264.3766 -0.4390 240.4031 107 132 85 1
264.6084 -0.4279 244.5165 107 132 85 1
264.7757 -0.3954 250.0902 107 132 85 1
265.1676 -0.3355 255.5424 107 132 85 1
265.1424 -0.1579 270.4633 107 132 85 1
264.5562 -0.1103 275.6611 107 132 85 1
265.5515 -0.0080 284.8668 107 132 85 1
265.5914 0.0193 289.9274 174 174 166 3
264.8744 0.0348 294.7980 47 50 54 2
265.6934 0.0398 300.4856 47 50 54 2
265.2911 0.0439 305.0359 107 132 85 1
265.5070 0.0405 310.3629 47 50 54 2
264.5065 0.0592 314.7045 47 50 54 2
265.0222 0.0594 320.0013 47 50 54 2
265.5512 0.0656 324.7252 47 50 54 2
265.3836 0.0937 329.3275 47 50 54 2
264.8275 0.1531 335.6954 47 50 54 2
265.5598 0.1796 340.0127 47 50 54 2
264.8549 0.2380 344.3993 47 50 54 2
265.6428 0.2775 349.6983 47 50 54 2
264.8026 0.3418 354.6994 47 50 54 2
265.4761 0.3694 360.4547 47 50 54 2
264.6345 0.4088 364.8914 47 50 54 2
265.5226 0.3914 370.5924 47 50 54 2
265.0868 0.3916 374.5383 47 50 54 2
264.7942 0.3644 380.0171 47 50 54 2
269.4450 -0.1090 0.6438 47 50 54 2
269.4559 -0.0899 4.3059 174 174 166 3
270.1863 -0.0451 10.4761 174 174 166 3
269.9682 -0.0544 20.5474 174 174 166 3
270.1938 -0.0634 24.8763 174 174 166 3
270.4953 -0.1074 34.5091 174 174 166 3
270.1985 -0.1390 39.7251 174 174 166 3
269.6265 -0.1662 45.0579 174 174 166 3
270.4964 -0.1661 50.0238 174 174 166 3
269.9469 -0.1655 55.6099 174 174 166 3
270.0001 -0.1482 59.8514 174 174 166 3
269.3791 -0.1223 64.4023 174 174 166 3
269.7737 -0.0608 70.6767 174 174 166 3
269.4303 -0.0077 75.3712 174 174 166 3
270.1766 0.0439 79.5687 174 174 166 3
269.4464 0.1082 84.6686 47 50 54 2
269.4884 0.2604 104.6219 107 132 85 1
270.2741 0.1431 125.4714 47 50 54 2
270.1654 0.1132 129.7283 47 50 54 2
270.1289 0.0772 134.7145 174 174 166 3
270.0677 0.0434 140.6829 107 132 85 1
270.1932 0.0183 155.3495 107 132 85 1
269.3898 0.0541 164.6547 107 132 85 1
270.4843 0.0884 174.7174 174 174 166 3
270.0132 0.1013 180.4800 47 50 54 2
269.4816 0.0988 185.4265 174 174 166 3
270.5198 0.0935 189.4812 107 132 85 1
269.6263 0.0265 199.4634 107 132 85 1
270.3758 -0.0139 204.3179 107 132 85 1
269.6718 -0.0774 209.5282 107 132 85 1
270.4473 -0.1289 215.0102 107 132 85 1
270.4232 -0.1732 219.3374 107 132 85 1
270.4717 -0.2193 224.9944 174 174 166 3
269.4890 -0.2715 230.0091 47 50 54 2
269.5125 -0.2850 234.3421 47 50 54 2
269.7431 -0.2554 245.2659 107 132 85 1
269.9396 -0.1229 260.0785 107 132 85 1
269.3782 -0.0981 264.4444 107 132 85 1
270.4529 0.0147 274.9988 107 132 85 1
270.4415 0.0337 279.6550 107 132 85 1
269.6236 0.0350 285.2673 174 174 166 3
269.3319 0.0346 289.7742 47 50 54 2
269.5781 0.0279 294.4954 47 50 54 2
269.4809 0.0143 299.4336 174 174 166 3
270.3514 -0.0149 305.3541 174 174 166 3
270.6950 -0.0360 310.5878 107 132 85 1
269.7932 -0.0295 315.6893 174 174 166 3
270.3857 -0.0232 324.5747 174 174 166 3
269.3244 0.0240 329.9186 174 174 166 3
269.3885 0.0663 335.5619 174 174 166 3
269.7819 0.1046 340.4838 174 174 166 3
270.2307 0.1891 350.3708 47 50 54 2
269.8373 0.2349 355.1389 47 50 54 2
269.4020 0.2757 360.6265 174 174 166 3
270.6526 0.2524 364.9686 107 132 85 1
270.2620 0.2597 369.6695 174 174 166 3
269.8770 0.2187 379.4150 174 174 166 3
274.5865 0.0672 0.0000 47 50 54 2
275.6275 0.1195 5.5349 174 174 166 3
274.4458 0.0765 15.2737 107 132 85 1
275.6846 0.0870 19.7100 107 132 85 1
274.5886 0.0311 24.6099 107 132 85 1
275.2369 -0.0366 34.9714 107 132 85 1
275.2654 -0.1011 45.6744 107 132 85 1
274.8883 -0.1182 54.7121 107 132 85 1
274.6390 -0.0755 65.6108 107 132 85 1
275.3288 0.0024 75.1744 107 132 85 1
275.6131 0.0750 85.3252 47 50 54 2
274.7804 0.1254 100.0995 107 132 85 1
274.4781 0.0969 110.2682 107 132 85 1
274.7625 0.0131 120.3315 174 174 166 3
274.8207 -0.0244 124.8480 47 50 54 2
274.4550 -0.0502 130.5976 174 174 166 3
274.3007 -0.0658 134.6024 107 132 85 1
275.0361 -0.1026 144.4548 107 132 85 1
274.3213 -0.0455 155.4169 107 132 85 1
274.7605 -0.0227 159.6888 107 132 85 1
274.6127 0.0172 164.8323 107 132 85 1
274.8341 0.0810 174.3135 174 174 166 3
274.9533 0.1065 180.3752 47 50 54 2
275.4319 0.1138 185.5784 174 174 166 3
274.9420 0.0876 194.9298 107 132 85 1
274.4825 0.0542 199.9173 107 132 85 1
274.6339 -0.0317 210.4985 107 132 85 1
274.8107 -0.0676 215.2977 107 132 85 1
275.6758 -0.0799 219.6658 107 132 85 1
274.6159 -0.1353 230.6229 47 50 54 2
275.2779 -0.1075 235.4175 47 50 54 2
274.6987 -0.1093 239.8312 174 174 166 3
275.4039 0.0605 259.5727 107 132 85 1
274.4235 0.0640 265.1386 107 132 85 1
275.5549 0.1131 269.6412 107 132 85 1
275.4786 0.1158 274.4843 107 132 85 1
274.5217 0.0920 280.2675 174 174 166 3
275.0652 0.0773 285.2513 47 50 54 2
275.0953 0.0450 290.3437 47 50 54 2
274.4666 0.0130 294.8548 174 174 166 3
275.4001 -0.0675 305.0117 107 132 85 1
274.9513 -0.0912 310.3072 107 132 85 1
274.5569 -0.1008 315.5613 107 132 85 1
274.9038 -0.0713 329.6325 107 132 85 1
275.5533 -0.0437 335.2221 107 132 85 1
274.3321 0.0959 350.0383 47 50 54 2
274.3078 0.1269 355.3403 47 50 54 2
279.8883 0.2407 0.0000 47 50 54 2
279.4656 0.2361 4.6094 174 174 166 3
279.3758 0.0249 35.6161 107 132 85 1
280.0094 -0.0294 44.9614 107 132 85 1
279.3615 -0.0566 49.8490 107 132 85 1
279.3022 -0.0172 69.3080 107 132 85 1
279.5559 0.0403 84.5658 47 50 54 2
279.6217 0.0390 90.6549 47 50 54 2
280.3458 0.0146 94.3031 174 174 166 3
280.4724 -0.0254 100.5506 107 132 85 1
280.1123 -0.1453 115.4110 174 174 166 3
279.9396 -0.1761 119.6702 47 50 54 2
280.4601 -0.2291 124.3260 47 50 54 2
280.4496 -0.2546 129.8006 107 132 85 1
280.0266 -0.2414 139.9104 107 132 85 1
280.5506 -0.2239 145.5802 107 132 85 1
279.8823 -0.0797 159.4737 107 132 85 1
280.1780 -0.0289 164.3687 107 132 85 1
279.4674 0.0742 175.4483 174 174 166 3
280.4152 0.0982 180.5930 47 50 54 2
279.7537 0.1124 185.6614 174 174 166 3
279.5149 0.1115 190.2481 107 132 85 1
279.3355 0.0999 194.8252 107 132 85 1
279.4644 0.0787 199.9951 107 132 85 1
280.0456 0.0598 204.5828 107 132 85 1
279.8393 0.0323 210.1021 107 132 85 1
279.5797 0.0109 214.6930 107 132 85 1
280.1030 0.0105 219.6700 107 132 85 1
279.5212 0.0097 229.9604 174 174 166 3
280.1794 0.0554 234.8902 47 50 54 2
279.6945 0.0672 239.3137 47 50 54 2
279.3990 0.0953 244.5700 174 174 166 3
279.7359 0.2040 259.5635 107 132 85 1
279.4123 0.1851 274.9097 107 132 85 1
279.3551 0.1466 280.4343 47 50 54 2
279.8372 0.1088 284.8466 47 50 54 2
279.5715 0.0527 289.8988 174 174 166 3
280.2489 -0.1130 305.2142 107 132 85 1
279.9175 -0.1417 309.6396 107 132 85 1
279.4328 -0.1602 315.2390 107 132 85 1
279.9425 -0.0393 349.4902 47 50 54 2
279.3695 -0.0106 354.4563 47 50 54 2
280.5980 -0.1118 375.6287 107 132 85 1
284.4598 0.3760 0.4543 47 50 54 2
285.5666 0.4012 5.1729 174 174 166 3
285.2639 0.3331 15.4083 107 132 85 1
285.2878 0.2360 25.0569 107 132 85 1
284.4970 0.1672 30.1079 107 132 85 1
284.4684 0.1165 35.1915 107 132 85 1
285.1724 0.0920 39.6066 107 132 85 1
285.0159 0.0550 44.9396 107 132 85 1
284.5320 0.0245 50.4202 107 132 85 1
284.3906 0.0119 59.4992 107 132 85 1
284.4014 0.0152 64.9200 107 132 85 1
285.4152 0.0247 70.5729 107 132 85 1
284.6630 0.0186 75.0853 107 132 85 1
285.4263 0.0057 79.8661 107 132 85 1
284.3785 -0.0055 84.5356 47 50 54 2
285.4873 -0.0604 90.3656 47 50 54 2
284.5292 -0.0872 95.4943 107 132 85 1
285.6950 -0.2254 104.8117 107 132 85 1
285.4898 -0.3309 114.6545 47 50 54 2
284.9987 -0.3566 119.5317 47 50 54 2
285.3288 -0.3998 125.2742 174 174 166 3
285.3825 -0.4094 130.6523 107 132 85 1
284.9968 -0.3896 134.8972 107 132 85 1
284.7832 -0.2530 150.2520 107 132 85 1
284.4792 -0.1304 159.3049 107 132 85 1
284.4793 -0.0592 164.8393 107 132 85 1
285.6299 0.0414 175.5228 174 174 166 3
284.8869 0.0752 179.9126 47 50 54 2
284.5382 0.0965 184.6927 174 174 166 3
285.0518 0.0980 210.1755 107 132 85 1
284.4294 0.0951 215.4802 107 132 85 1
284.6796 0.1701 229.5765 107 132 85 1
284.5995 0.2137 235.3297 174 174 166 3
284.4939 0.2475 239.7491 47 50 54 2
284.3535 0.2859 245.1620 174 174 166 3
285.5094 0.3618 264.8924 107 132 85 1
284.8119 0.3119 270.1356 174 174 166 3
284.3332 0.2509 275.6154 47 50 54 2
284.9545 0.1935 280.6441 47 50 54 2
285.2894 0.1400 284.4262 174 174 166 3
285.5871 0.0544 289.9802 107 132 85 1
284.3193 -0.0143 294.6758 107 132 85 1
284.6094 -0.0786 299.4159 107 132 85 1
284.3095 -0.2026 314.4036 107 132 85 1
285.4979 -0.2252 320.0559 107 132 85 1
284.7132 -0.1889 335.5441 107 132 85 1
285.3930 -0.1894 339.4289 107 132 85 1
285.5659 -0.1821 349.8741 47 50 54 2
285.2778 -0.1799 354.3931 47 50 54 2
285.4240 -0.2012 359.9723 107 132 85 1
284.5111 -0.1953 365.6723 107 132 85 1
285.0235 -0.2383 370.5069 107 132 85 1
285.1670 -0.2651 374.7814 107 132 85 1
284.8441 -0.2786 380.6442 107 132 85 1
290.3648 0.5236 0.0000 47 50 54 2
289.5334 0.4908 5.6535 174 174 166 3
290.2288 0.4338 15.1638 107 132 85 1
289.7332 0.2606 30.4462 107 132 85 1
289.6915 0.2175 34.7873 107 132 85 1
289.4730 0.1144 50.0072 107 132 85 1
290.6434 0.0981 60.2363 107 132 85 1
290.5401 0.0769 65.2292 107 132 85 1
289.6864 0.0518 69.3091 107 132 85 1
290.4104 -0.0786 84.6594 47 50 54 2
289.9516 -0.1493 90.6417 47 50 54 2
290.4325 -0.2345 95.6862 107 132 85 1
289.6938 -0.2729 99.4955 107 132 85 1
290.0014 -0.4328 110.1859 174 174 166 3
290.3190 -0.4987 115.3818 47 50 54 2
289.8647 -0.5183 119.9409 47 50 54 2
289.9018 -0.5373 125.0258 107 132 85 1
290.2790 -0.4621 140.6419 107 132 85 1
290.0925 -0.3414 149.4443 107 132 85 1
289.8384 -0.2622 154.4386 107 132 85 1
290.4589 -0.1204 164.5440 107 132 85 1
289.9200 0.0077 175.6039 174 174 166 3
290.1335 0.0413 180.3509 47 50 54 2
290.2488 0.0664 184.9702 174 174 166 3
289.3783 0.1608 210.6551 107 132 85 1
289.7231 0.1913 214.4833 107 132 85 1
289.4092 0.2315 220.3098 107 132 85 1
289.5681 0.3916 235.5940 107 132 85 1
290.5539 0.4625 239.3978 47 50 54 2
289.5955 0.4754 245.5244 47 50 54 2
289.6367 0.4973 250.2068 174 174 166 3
289.6047 0.4449 265.3607 174 174 166 3
289.7873 0.4034 269.3493 47 50 54 2
289.5478 0.3225 274.8067 47 50 54 2
289.7582 0.2333 280.2230 174 174 166 3
289.7796 0.1488 284.9161 107 132 85 1
289.3268 0.0500 290.3880 107 132 85 1
289.8239 -0.0272 295.0001 107 132 85 1
