ply
format ascii 1.0
comment generated by citygen
element vertex 1056
property float x
property float y
property float z
property uchar red
property uchar green
property uchar blue
property int class
end_header
128.2726 0.1145 0.0000 47 50 54 2
128.0000 0.1967 2.8900 47 50 54 2
128.0000 0.3095 7.2573 47 50 54 2
128.5005 0.3836 10.8570 47 50 54 2
128.0000 0.4599 14.5253 47 50 54 2
128.0000 0.5026 17.1234 47 50 54 2
128.5109 0.5488 21.3998 47 50 54 2
128.0000 0.5935 24.1461 47 50 54 2
128.0000 0.6263 27.4543 47 50 54 2
128.0000 0.6561 30.9423 47 50 54 2
128.5329 0.6697 34.9467 47 50 54 2
128.0000 0.7114 38.4218 47 50 54 2
128.0000 0.7403 42.4620 47 50 54 2
128.5513 0.7501 45.9043 47 50 54 2
128.1947 0.7808 48.5208 47 50 54 2
128.0000 0.8447 55.7080 107 132 85 1
128.5277 0.8688 60.0023 107 132 85 1
128.3055 0.9384 70.4406 174 174 166 3
128.1727 0.9480 73.5901 47 50 54 2
128.2460 0.9460 76.6619 47 50 54 2
128.6161 0.9257 80.5281 174 174 166 3
128.2655 0.9078 83.6272 107 132 85 1
128.0000 0.8682 87.3754 107 132 85 1
128.0000 0.7970 91.6263 107 132 85 1
128.2928 0.6558 97.5173 107 132 85 1
128.0000 0.4400 104.8339 107 132 85 1
128.0000 0.3165 108.3874 174 174 166 3
128.4363 0.1753 112.0553 174 174 166 3
128.0000 0.0429 115.7512 47 50 54 2
128.0000 -0.0559 118.3744 47 50 54 2
128.0000 -0.2011 122.3120 47 50 54 2
128.0000 -0.3248 125.8384 47 50 54 2
131.4451 0.1240 0.0000 47 50 54 2
131.5106 0.2054 3.5407 47 50 54 2
131.5405 0.2776 7.1576 174 174 166 3
131.4671 0.3448 11.0551 174 174 166 3
130.9168 0.3956 13.8223 174 174 166 3
130.9644 0.4363 16.9938 174 174 166 3
131.1383 0.4724 20.6822 174 174 166 3
130.9575 0.5096 24.1607 174 174 166 3
132.0310 0.5076 28.0600 174 174 166 3
131.4917 0.5534 32.0098 174 174 166 3
131.1450 0.5853 34.8450 174 174 166 3
131.4734 0.6065 39.0064 47 50 54 2
131.9597 0.6187 42.2753 47 50 54 2
131.6229 0.6594 45.6671 47 50 54 2
131.5071 0.6904 48.5515 174 174 166 3
131.9208 0.8195 62.4846 107 132 85 1
131.9267 0.8722 70.3115 174 174 166 3
131.9372 0.8808 73.5765 47 50 54 2
131.2311 0.8923 77.2991 47 50 54 2
131.3336 0.8783 80.1661 174 174 166 3
131.6787 0.7957 87.4630 107 132 85 1
130.9146 0.7409 91.5665 107 132 85 1
131.1333 0.6622 94.9379 107 132 85 1
132.0571 0.5504 98.4718 174 174 166 3
131.6854 0.4697 101.5655 174 174 166 3
131.3428 0.3731 104.8817 47 50 54 2
131.8682 0.2571 108.0634 47 50 54 2
130.9396 0.1499 111.6567 47 50 54 2
131.7273 -0.0018 115.6908 47 50 54 2
131.0613 -0.1183 119.3159 47 50 54 2
130.9505 -0.2277 122.6530 47 50 54 2
132.0966 -0.3432 126.4840 47 50 54 2
135.0021 0.1256 0.0000 47 50 54 2
134.8365 0.1966 4.1259 174 174 166 3
135.1092 0.2277 6.4421 174 174 166 3
135.2871 0.3377 17.7683 107 132 85 1
134.9839 0.3912 24.4604 107 132 85 1
135.1359 0.4885 38.6762 47 50 54 2
135.2291 0.5229 42.5976 47 50 54 2
134.6121 0.5698 45.3600 47 50 54 2
134.9134 0.6489 53.0318 107 132 85 1
135.4750 0.7394 62.4126 107 132 85 1
135.6277 0.7889 69.6954 107 132 85 1
135.0339 0.8138 73.9913 47 50 54 2
135.4163 0.8012 76.8168 47 50 54 2
135.0093 0.7952 80.2415 47 50 54 2
134.9620 0.7637 83.8938 107 132 85 1
135.2600 0.6562 90.4576 174 174 166 3
135.1155 0.5754 94.4594 47 50 54 2
134.3779 0.4957 98.4070 47 50 54 2
134.5776 0.4087 101.3414 47 50 54 2
134.4486 0.2988 105.1115 47 50 54 2
135.4543 0.1623 108.8431 47 50 54 2
135.4535 0.0609 112.1418 47 50 54 2
134.9491 -0.0464 115.8938 47 50 54 2
134.6729 -0.1393 119.1176 47 50 54 2
134.8621 -0.2181 121.9117 47 50 54 2
135.1217 -0.3195 125.9775 47 50 54 2
138.6119 0.1176 0.0000 47 50 54 2
138.3364 0.1593 3.5382 47 50 54 2
138.4755 0.1898 7.0419 107 132 85 1
138.0655 0.2481 14.6203 107 132 85 1
138.4461 0.2522 17.3463 107 132 85 1
138.8356 0.2734 24.5282 107 132 85 1
138.7813 0.2948 28.2714 107 132 85 1
138.1647 0.3358 31.6306 107 132 85 1
138.1645 0.3888 38.0788 47 50 54 2
138.6692 0.4183 42.3781 47 50 54 2
138.8586 0.4492 45.4718 47 50 54 2
139.0899 0.5261 51.9884 107 132 85 1
138.7524 0.6324 59.9107 107 132 85 1
138.3737 0.6694 62.5415 107 132 85 1
138.9538 0.7116 73.0075 174 174 166 3
138.1235 0.7296 76.7975 47 50 54 2
138.4267 0.7043 79.9016 47 50 54 2
139.0804 0.6447 84.0030 47 50 54 2
139.0518 0.6063 86.8716 47 50 54 2
138.5881 0.5418 91.3520 47 50 54 2
138.6725 0.4633 94.9014 47 50 54 2
138.7314 0.3940 97.7408 47 50 54 2
138.4641 0.3161 101.0699 47 50 54 2
138.6950 0.2169 104.5327 47 50 54 2
138.9007 0.1133 108.1771 174 174 166 3
138.6707 0.0055 112.3577 174 174 166 3
138.7575 -0.0773 115.5588 47 50 54 2
138.3689 -0.1529 118.8210 47 50 54 2
138.9331 -0.2377 122.7652 47 50 54 2
138.0541 -0.3053 126.1599 47 50 54 2
142.1212 0.1041 0.4702 47 50 54 2
141.7858 0.1222 3.1941 47 50 54 2
141.5166 0.1426 6.9676 107 132 85 1
142.1967 0.1473 14.5195 107 132 85 1
142.1066 0.1539 16.9331 107 132 85 1
141.8545 0.1985 28.1040 107 132 85 1
141.7001 0.2272 31.8855 107 132 85 1
142.2288 0.2399 35.3943 107 132 85 1
141.8858 0.2843 38.8355 47 50 54 2
141.9118 0.3259 42.5388 47 50 54 2
142.3885 0.3474 45.3186 47 50 54 2
142.1632 0.4106 49.5935 107 132 85 1
141.7998 0.4533 52.0213 107 132 85 1
141.4848 0.6198 67.0254 174 174 166 3
142.0175 0.6163 70.0173 174 174 166 3
141.3833 0.6389 73.8727 47 50 54 2
142.0558 0.6100 76.5060 47 50 54 2
142.2363 0.5777 80.4858 47 50 54 2
141.8400 0.5580 83.6669 47 50 54 2
141.8977 0.4958 87.8865 47 50 54 2
142.1794 0.4313 90.9946 47 50 54 2
141.6606 0.3780 94.5076 47 50 54 2
142.3984 0.2864 97.6115 174 174 166 3
142.6115 0.1929 101.4453 174 174 166 3
141.7954 0.1337 104.8690 174 174 166 3
141.8908 0.0391 108.8095 107 132 85 1
142.2505 -0.0387 112.0783 174 174 166 3
142.1064 -0.1065 115.5277 47 50 54 2
141.4387 -0.1688 119.0789 47 50 54 2
142.0791 -0.2236 122.6090 47 50 54 2
141.7787 -0.2686 126.0025 47 50 54 2
146.1279 0.0737 0.0000 47 50 54 2
145.2188 0.0829 3.3288 47 50 54 2
145.8061 0.0572 17.2004 107 132 85 1
145.6884 0.0688 24.2240 107 132 85 1
145.7993 0.0780 27.4036 107 132 85 1
145.3565 0.1127 31.0982 107 132 85 1
145.9437 0.1300 35.2258 107 132 85 1
145.0314 0.1966 39.1280 47 50 54 2
145.7116 0.2194 42.6110 47 50 54 2
146.0009 0.2465 45.3149 47 50 54 2
146.0114 0.2977 49.1409 107 132 85 1
145.9185 0.3508 52.9573 174 174 166 3
145.6077 0.3978 56.0177 174 174 166 3
145.5691 0.4415 59.9322 174 174 166 3
145.2177 0.4799 63.0829 47 50 54 2
145.8796 0.4770 65.9934 47 50 54 2
145.3343 0.5077 69.7281 47 50 54 2
145.0892 0.5150 73.6252 47 50 54 2
145.8618 0.4741 76.7239 47 50 54 2
145.2335 0.4729 80.0935 47 50 54 2
144.8873 0.4405 84.2385 47 50 54 2
146.0220 0.3580 87.0451 174 174 166 3
145.8421 0.2945 91.3427 174 174 166 3
145.4254 0.2578 94.1658 174 174 166 3
145.4740 -0.0150 108.1987 174 174 166 3
145.7281 -0.0799 111.8971 47 50 54 2
145.6395 -0.1249 115.1353 47 50 54 2
145.2409 -0.1734 119.2985 47 50 54 2
145.5927 -0.2002 122.4670 174 174 166 3
145.0977 -0.2287 126.1062 47 50 54 2
148.7571 0.0519 0.0000 47 50 54 2
148.6416 0.0402 3.0550 47 50 54 2
148.8784 0.0209 6.3776 174 174 166 3
148.9651 -0.0155 14.4069 107 132 85 1
149.2660 -0.0296 17.0451 107 132 85 1
148.6836 -0.0184 20.3988 107 132 85 1
149.2988 0.0350 34.9341 107 132 85 1
148.6846 0.0914 38.7650 47 50 54 2
149.2914 0.1188 42.4219 47 50 54 2
148.8184 0.1757 45.8556 47 50 54 2
149.5878 0.1903 48.6409 47 50 54 2
149.1676 0.2512 52.5490 47 50 54 2
149.0593 0.2960 56.2198 47 50 54 2
149.4257 0.3194 60.0161 47 50 54 2
148.5589 0.3660 62.3979 47 50 54 2
148.5967 0.3845 66.3926 47 50 54 2
148.8078 0.3821 69.6981 47 50 54 2
148.6786 0.3819 73.0314 47 50 54 2
149.4039 0.3292 77.4642 47 50 54 2
149.0803 0.3103 81.1107 47 50 54 2
149.4214 0.2603 84.2546 47 50 54 2
149.4632 0.2192 87.2381 174 174 166 3
148.6778 0.1944 90.9787 107 132 85 1
149.2569 -0.0493 105.6290 174 174 166 3
148.4194 -0.0722 108.6367 47 50 54 2
148.6908 -0.1169 112.3797 47 50 54 2
148.8073 -0.1395 114.9964 47 50 54 2
148.8717 -0.1635 119.4052 174 174 166 3
149.1610 -0.1685 122.8987 174 174 166 3
149.2723 -0.1647 126.0826 47 50 54 2
152.7684 0.0149 0.0000 47 50 54 2
152.6503 -0.0183 3.7666 47 50 54 2
152.8313 -0.1005 14.2039 107 132 85 1
152.4347 -0.1044 17.2085 107 132 85 1
152.9363 -0.1228 20.9198 107 132 85 1
152.3240 -0.1060 24.1581 107 132 85 1
152.6568 -0.0481 35.3087 107 132 85 1
151.9509 -0.0044 37.8776 174 174 166 3
152.6143 0.0294 42.3949 47 50 54 2
153.0802 0.0582 45.9052 47 50 54 2
152.4902 0.1080 48.7268 47 50 54 2
152.2289 0.1610 52.7815 47 50 54 2
152.5387 0.1831 56.1088 47 50 54 2
152.2430 0.2201 59.6335 47 50 54 2
152.9566 0.2113 63.0383 47 50 54 2
152.5281 0.2361 67.0472 174 174 166 3
152.5113 0.2333 70.5007 174 174 166 3
152.6360 0.1934 77.1837 174 174 166 3
152.4796 0.1706 80.5657 47 50 54 2
152.5565 0.1330 83.8002 47 50 54 2
152.9528 0.0739 87.3730 174 174 166 3
152.0047 0.0697 90.7129 107 132 85 1
152.5054 -0.0053 95.0821 107 132 85 1
152.3285 -0.1038 104.8585 174 174 166 3
153.0043 -0.1354 107.9653 47 50 54 2
151.8811 -0.1388 111.5792 47 50 54 2
153.0665 -0.1495 114.8905 174 174 166 3
152.7291 -0.1244 122.9127 174 174 166 3
152.1733 -0.1154 125.8192 47 50 54 2
155.8819 -0.0150 0.0000 47 50 54 2
155.4363 -0.0474 3.0344 47 50 54 2
155.7953 -0.1324 10.5625 107 132 85 1
156.5583 -0.1761 14.4435 107 132 85 1
155.7719 -0.1770 17.6000 107 132 85 1
156.3767 -0.1975 23.9620 107 132 85 1
156.1315 -0.1387 34.5217 107 132 85 1
156.4460 -0.1134 38.1721 47 50 54 2
156.0773 -0.0664 41.9582 47 50 54 2
155.5641 -0.0187 45.1927 47 50 54 2
156.1287 0.0052 49.1804 47 50 54 2
155.9753 0.0430 52.9442 47 50 54 2
156.3153 0.0544 56.2367 174 174 166 3
155.4551 0.1018 59.2869 174 174 166 3
155.7660 0.1023 63.5569 174 174 166 3
156.6041 0.0403 73.4855 107 132 85 1
156.2685 0.0271 77.5438 174 174 166 3
155.6535 0.0338 80.0531 47 50 54 2
156.2008 -0.0297 84.1400 47 50 54 2
156.1145 -0.0589 87.4677 47 50 54 2
155.7545 -0.0781 90.8909 174 174 166 3
155.4782 -0.1003 94.3494 107 132 85 1
155.7723 -0.1585 101.6049 174 174 166 3
156.0822 -0.1747 105.1481 47 50 54 2
155.7921 -0.1713 108.2490 47 50 54 2
156.2343 -0.1641 112.1333 47 50 54 2
156.3074 -0.1406 115.9454 107 132 85 1
156.1916 -0.1193 118.5629 107 132 85 1
155.4325 -0.0924 122.2579 174 174 166 3
155.9660 -0.0475 125.5434 47 50 54 2
160.0690 -0.0536 0.0000 47 50 54 2
159.4791 -0.1096 3.9797 47 50 54 2
159.7703 -0.1613 7.4842 107 132 85 1
159.8048 -0.1916 10.0023 107 132 85 1
159.9947 -0.2672 24.6123 107 132 85 1
158.9282 -0.2402 27.5977 107 132 85 1
159.2248 -0.1800 38.1489 47 50 54 2
158.9687 -0.1381 42.3219 47 50 54 2
160.0631 -0.1421 45.4722 47 50 54 2
159.0677 -0.0844 49.2547 174 174 166 3
159.2581 -0.0442 59.4721 107 132 85 1
159.3106 -0.0823 73.0253 107 132 85 1
159.5081 -0.1152 76.4516 107 132 85 1
159.0141 -0.1220 80.2902 174 174 166 3
160.0509 -0.1969 83.9019 47 50 54 2
160.0562 -0.2197 87.1773 47 50 54 2
159.4995 -0.2219 91.2666 47 50 54 2
159.8552 -0.2468 94.4182 174 174 166 3
159.5147 -0.2432 98.0791 174 174 166 3
159.4734 -0.2409 100.9994 47 50 54 2
159.3164 -0.2269 104.7258 47 50 54 2
159.6487 -0.2052 108.7128 47 50 54 2
159.0110 -0.1748 111.7627 174 174 166 3
159.6664 -0.1318 115.4449 107 132 85 1
159.1822 -0.0785 119.5458 107 132 85 1
159.3334 -0.0257 122.8544 174 174 166 3
159.7836 0.0336 125.9462 47 50 54 2
162.8716 -0.0766 0.0000 47 50 54 2
163.5701 -0.1504 3.8086 47 50 54 2
162.9288 -0.1934 6.9757 174 174 166 3
163.2539 -0.2439 10.5711 174 174 166 3
163.5772 -0.2854 14.3127 174 174 166 3
162.5261 -0.2906 17.0190 174 174 166 3
162.4285 -0.3038 20.3934 174 174 166 3
162.9075 -0.3165 24.2406 174 174 166 3
163.5186 -0.3220 28.0472 174 174 166 3
162.5889 -0.2957 31.0898 174 174 166 3
163.4475 -0.2951 34.8033 174 174 166 3
163.3391 -0.2701 39.0447 47 50 54 2
162.9804 -0.2414 42.5525 47 50 54 2
163.1533 -0.2316 45.3133 47 50 54 2
163.3475 -0.2228 48.7501 174 174 166 3
163.1248 -0.2003 55.7555 107 132 85 1
163.0793 -0.2215 66.1804 107 132 85 1
163.4138 -0.2596 70.2959 107 132 85 1
162.6472 -0.2634 76.4782 107 132 85 1
162.5921 -0.2886 80.6977 107 132 85 1
162.6634 -0.3089 83.6369 174 174 166 3
162.3714 -0.3128 87.0793 47 50 54 2
162.6452 -0.3334 90.9255 47 50 54 2
162.4686 -0.3268 95.1257 174 174 166 3
163.0234 -0.3316 97.9699 47 50 54 2
162.5997 -0.2986 101.7414 47 50 54 2
162.5988 -0.2695 104.9094 47 50 54 2
163.5426 -0.2249 108.8759 174 174 166 3
163.5970 -0.1786 111.6835 107 132 85 1
162.9426 -0.0337 119.5311 107 132 85 1
163.0881 0.0297 122.5318 174 174 166 3
163.5896 0.0991 125.4246 47 50 54 2
166.0734 -0.0987 0.0000 47 50 54 2
167.0668 -0.1739 3.5426 47 50 54 2
166.3281 -0.2269 7.0054 47 50 54 2
166.1961 -0.2797 10.9290 47 50 54 2
166.4861 -0.3100 13.4435 47 50 54 2
166.4456 -0.3409 17.2748 47 50 54 2
166.1810 -0.3572 21.2464 47 50 54 2
166.9220 -0.3735 24.2203 47 50 54 2
165.9649 -0.3615 27.5038 47 50 54 2
166.1731 -0.3596 31.0097 47 50 54 2
166.4752 -0.3568 34.3701 47 50 54 2
165.9840 -0.3351 38.1028 47 50 54 2
166.4588 -0.3334 42.6296 47 50 54 2
166.7475 -0.3371 44.9125 47 50 54 2
166.4658 -0.3244 49.2936 47 50 54 2
166.6888 -0.3342 52.5910 107 132 85 1
166.2392 -0.3242 56.3395 107 132 85 1
166.0805 -0.3284 59.6522 107 132 85 1
166.4963 -0.3597 62.5142 107 132 85 1
166.0405 -0.3584 66.0616 107 132 85 1
166.4108 -0.4452 77.5924 107 132 85 1
166.4858 -0.4707 84.5303 174 174 166 3
166.9027 -0.4846 88.0007 47 50 54 2
166.5421 -0.4640 90.6924 47 50 54 2
166.4896 -0.4368 94.9339 47 50 54 2
166.3421 -0.4040 98.0427 47 50 54 2
166.9713 -0.3648 101.8047 47 50 54 2
166.7565 -0.3159 104.6141 47 50 54 2
165.9240 0.0059 119.5902 107 132 85 1
166.2372 0.0908 122.9439 174 174 166 3
166.6716 0.1701 125.9567 47 50 54 2
170.5621 -0.1289 0.4281 47 50 54 2
169.8265 -0.1775 2.9154 47 50 54 2
169.8001 -0.2575 7.4277 47 50 54 2
169.5760 -0.3034 10.6993 47 50 54 2
170.4041 -0.3483 14.1321 47 50 54 2
169.4092 -0.3716 17.6705 47 50 54 2
169.6843 -0.3910 20.4407 47 50 54 2
169.7710 -0.4068 24.0919 47 50 54 2
170.4565 -0.4241 27.9078 47 50 54 2
170.5456 -0.4309 31.6821 47 50 54 2
169.6194 -0.4163 34.7222 47 50 54 2
169.7630 -0.4199 38.8972 47 50 54 2
170.4379 -0.4401 42.2123 47 50 54 2
169.9382 -0.4320 45.3732 47 50 54 2
170.5960 -0.4665 49.5248 47 50 54 2
170.0758 -0.4982 59.0597 107 132 85 1
170.4887 -0.5645 65.8815 107 132 85 1
169.6373 -0.5857 76.4685 107 132 85 1
169.6339 -0.5803 87.4179 174 174 166 3
170.0313 -0.5639 91.1856 47 50 54 2
169.6723 -0.5165 94.5741 47 50 54 2
170.0669 -0.4700 98.1714 47 50 54 2
170.4460 -0.4209 101.0327 47 50 54 2
169.6722 -0.3313 104.8775 174 174 166 3
170.2150 -0.2443 108.5146 174 174 166 3
169.5377 -0.1589 111.8330 107 132 85 1
169.7872 0.0304 118.6567 107 132 85 1
170.6278 0.1480 122.4779 174 174 166 3
170.4249 0.2302 125.6718 47 50 54 2
173.4966 -0.1269 0.0498 47 50 54 2
173.3382 -0.2012 3.5659 47 50 54 2
173.1080 -0.2651 7.0974 174 174 166 3
173.5587 -0.3160 10.3203 174 174 166 3
174.0863 -0.3666 14.1898 174 174 166 3
173.1887 -0.3929 17.1744 174 174 166 3
173.1509 -0.4186 20.4833 174 174 166 3
172.9053 -0.4377 24.0265 174 174 166 3
173.1344 -0.4592 28.3502 174 174 166 3
173.5176 -0.4766 31.4609 174 174 166 3
174.1202 -0.5042 35.5146 174 174 166 3
173.9927 -0.5181 38.9228 47 50 54 2
173.0874 -0.5119 42.2822 47 50 54 2
173.1868 -0.5312 45.3972 47 50 54 2
173.9180 -0.5776 48.7657 174 174 166 3
173.6275 -0.6566 59.6027 107 132 85 1
173.7345 -0.7423 70.4863 107 132 85 1
173.2944 -0.7427 76.6400 107 132 85 1
173.9535 -0.7618 80.9596 107 132 85 1
174.0205 -0.7429 84.5073 107 132 85 1
174.1073 -0.7134 87.7290 174 174 166 3
173.5851 -0.6468 91.6111 47 50 54 2
173.5855 -0.6051 94.0525 47 50 54 2
174.0340 -0.5364 97.6950 47 50 54 2
173.3948 -0.4243 102.0129 47 50 54 2
174.0798 -0.3624 104.3987 47 50 54 2
173.5803 -0.2579 107.9417 47 50 54 2
173.1101 -0.1411 111.8349 174 174 166 3
173.8764 -0.0387 114.9347 174 174 166 3
174.0736 0.0795 118.6268 174 174 166 3
173.3296 0.1819 122.3247 174 174 166 3
173.4779 0.2714 125.4145 47 50 54 2
176.9964 -0.1247 0.0000 47 50 54 2
177.4443 -0.1980 3.4145 47 50 54 2
176.4559 -0.2601 6.6198 107 132 85 1
177.3346 -0.3254 10.6709 107 132 85 1
176.8458 -0.3665 13.6738 107 132 85 1
176.9550 -0.4163 18.0290 107 132 85 1
176.4122 -0.4387 20.6083 107 132 85 1
176.9572 -0.4769 24.7814 107 132 85 1
177.2001 -0.5080 28.4480 107 132 85 1
176.9353 -0.5265 31.3177 107 132 85 1
177.1748 -0.5872 38.3148 47 50 54 2
177.5544 -0.6322 42.0950 47 50 54 2
177.2532 -0.6638 46.0370 174 174 166 3
177.6007 -0.9129 73.8227 107 132 85 1
176.7997 -0.8803 76.4085 107 132 85 1
176.4140 -0.8232 83.7625 107 132 85 1
176.8930 -0.7831 87.8076 47 50 54 2
176.7603 -0.7260 90.8684 47 50 54 2
176.8124 -0.6469 94.5563 47 50 54 2
176.5589 -0.5441 98.4577 174 174 166 3
177.4026 -0.4773 100.9619 174 174 166 3
176.4002 -0.3609 104.6056 47 50 54 2
176.6045 -0.2477 108.0734 47 50 54 2
177.0528 -0.1017 112.3162 47 50 54 2
176.9366 0.0027 115.4063 47 50 54 2
177.1111 0.1221 118.9510 47 50 54 2
176.8478 0.2346 122.6185 47 50 54 2
177.5717 0.3426 126.0577 47 50 54 2
180.2023 -0.1270 0.4943 47 50 54 2
180.6212 -0.1998 3.9567 47 50 54 2
180.8496 -0.2588 7.0785 107 132 85 1
180.3352 -0.3622 13.3902 107 132 85 1
180.3894 -0.4131 17.1639 107 132 85 1
180.6066 -0.4628 21.1893 107 132 85 1
181.0552 -0.6244 34.4060 107 132 85 1
180.5376 -0.6634 38.2827 47 50 54 2
179.9317 -0.7025 42.5136 47 50 54 2
180.7763 -0.7687 45.5619 47 50 54 2
180.3988 -0.8590 52.9749 107 132 85 1
179.8977 -0.9050 84.5769 174 174 166 3
181.0937 -0.8743 87.5608 47 50 54 2
180.3934 -0.7992 90.3722 47 50 54 2
180.6097 -0.7093 93.9246 47 50 54 2
180.1734 -0.5894 97.8276 174 174 166 3
180.1150 -0.4895 100.8949 107 132 85 1
180.0826 -0.3362 105.3102 174 174 166 3
180.9195 -0.2265 108.2695 174 174 166 3
180.1753 -0.1017 111.7762 47 50 54 2
180.2905 0.0111 114.8945 47 50 54 2
180.8008 0.1555 118.9585 47 50 54 2
180.9752 0.2522 121.8919 47 50 54 2
180.5809 0.3544 125.4163 47 50 54 2
184.3664 -0.0927 0.0000 47 50 54 2
183.7761 -0.1666 3.1558 47 50 54 2
183.6092 -0.3112 10.7206 107 132 85 1
183.9182 -0.3681 14.2413 107 132 85 1
184.1860 -0.5219 24.3132 107 132 85 1
184.4722 -0.5847 28.2217 107 132 85 1
183.3792 -0.6189 31.3122 107 132 85 1
184.3053 -0.7007 35.4643 107 132 85 1
184.3654 -0.7546 38.5294 47 50 54 2
183.9317 -0.8114 42.4256 47 50 54 2
184.2250 -0.8775 45.7407 47 50 54 2
183.6129 -1.0666 59.7535 107 132 85 1
183.3856 -1.1205 70.0118 107 132 85 1
183.6323 -1.0541 80.4550 174 174 166 3
184.1488 -1.0025 84.0007 47 50 54 2
183.7224 -0.9078 87.8876 47 50 54 2
183.5304 -0.8090 91.4602 47 50 54 2
184.4478 -0.7245 94.4071 174 174 166 3
183.9047 0.0602 115.6138 174 174 166 3
183.7833 0.1877 119.3058 174 174 166 3
183.6676 0.2879 122.4402 47 50 54 2
184.5614 0.4129 126.6054 47 50 54 2
187.3983 -0.0691 0.0000 47 50 54 2
188.1167 -0.1489 3.8631 47 50 54 2
187.5380 -0.2211 7.1182 107 132 85 1
187.7121 -0.2918 10.8006 107 132 85 1
187.5813 -0.6134 28.0154 107 132 85 1
187.0407 -0.6684 31.1763 107 132 85 1
187.8523 -0.8296 38.3383 47 50 54 2
187.1604 -0.8807 41.5753 47 50 54 2
187.0616 -0.9680 46.0461 174 174 166 3
187.3914 -1.1533 56.0965 107 132 85 1
187.4281 -1.2244 62.5184 107 132 85 1
187.4176 -1.2416 65.9312 107 132 85 1
187.5221 -1.1385 79.9531 47 50 54 2
187.2049 -1.0631 83.3808 47 50 54 2
187.5987 -0.9591 87.5543 47 50 54 2
187.7309 -0.8731 90.4041 174 174 166 3
187.5745 -0.7341 94.4721 107 132 85 1
187.4266 -0.6234 97.4830 107 132 85 1
187.1264 -0.1692 109.1130 107 132 85 1
187.4444 -0.0721 111.6001 107 132 85 1
187.4892 0.1934 118.9953 107 132 85 1
187.7706 0.3024 122.4035 174 174 166 3
186.9601 0.3949 125.6602 47 50 54 2
190.9069 -0.0358 0.0000 47 50 54 2
191.3781 -0.1221 4.0044 174 174 166 3
190.6919 -0.2789 11.0563 107 132 85 1
190.5157 -0.4054 17.1076 107 132 85 1
190.6810 -0.5553 24.0502 107 132 85 1
191.3166 -0.6476 27.8331 107 132 85 1
190.6007 -0.7367 31.9523 107 132 85 1
190.6645 -0.8826 37.9868 174 174 166 3
191.4420 -0.9945 41.8928 47 50 54 2
190.3906 -1.0554 45.7191 47 50 54 2
190.5819 -1.2963 59.8909 107 132 85 1
190.4740 -1.3173 63.2922 107 132 85 1
190.7448 -1.3181 70.4023 107 132 85 1
190.8262 -1.2970 73.0187 107 132 85 1
191.1001 -1.2394 77.3107 47 50 54 2
191.5144 -1.1661 81.0132 47 50 54 2
190.7894 -1.1007 83.3743 47 50 54 2
190.6122 -0.9961 86.9742 47 50 54 2
191.1408 -0.8547 91.2611 107 132 85 1
190.4214 -0.6231 97.4403 107 132 85 1
191.4144 -0.4786 101.0130 107 132 85 1
190.7391 -0.1879 108.3310 107 132 85 1
190.5434 0.3159 122.8008 174 174 166 3
190.7289 0.4136 126.3418 47 50 54 2
194.1123 -0.0014 0.0000 47 50 54 2
194.9497 -0.0828 3.8553 47 50 54 2
194.0636 -0.3385 14.5173 107 132 85 1
194.0166 -0.6820 28.0917 107 132 85 1
194.1016 -0.7715 31.3472 107 132 85 1
194.2248 -0.9847 39.0701 47 50 54 2
194.9586 -1.0856 42.2974 47 50 54 2
194.9794 -1.1735 45.8156 47 50 54 2
194.0598 -1.2235 49.0532 107 132 85 1
194.7353 -1.2981 52.0634 107 132 85 1
194.3197 -1.3481 55.9437 107 132 85 1
194.8844 -1.4135 66.2425 107 132 85 1
193.9966 -1.3279 74.0744 174 174 166 3
195.0488 -1.2760 77.3256 47 50 54 2
194.7496 -1.1981 80.5300 47 50 54 2
194.8774 -1.1008 83.9743 47 50 54 2
194.5310 -1.0063 86.9187 174 174 166 3
194.1561 -0.8587 91.1085 107 132 85 1
194.6963 -0.5647 98.6176 107 132 85 1
194.3298 -0.3347 104.3756 107 132 85 1
194.1456 -0.1691 108.6198 107 132 85 1
194.3323 0.0895 115.7825 107 132 85 1
194.9704 0.2021 119.3307 107 132 85 1
194.0210 0.3079 122.8012 174 174 166 3
194.2342 0.4037 126.4176 47 50 54 2
197.4258 0.0220 0.5913 47 50 54 2
197.5133 -0.0379 3.0994 47 50 54 2
198.5843 -0.2091 10.2747 107 132 85 1
198.4050 -0.3982 17.1561 107 132 85 1
197.5084 -0.8245 31.5724 107 132 85 1
198.0839 -0.9535 35.5145 174 174 166 3
197.5901 -1.0370 38.6069 47 50 54 2
197.6069 -1.1406 42.2946 47 50 54 2
197.7025 -1.2208 45.3367 47 50 54 2
197.9854 -1.4525 59.4365 174 174 166 3
197.3897 -1.4550 63.4663 107 132 85 1
197.9709 -1.4471 67.1296 107 132 85 1
198.3493 -1.4276 69.4766 174 174 166 3
197.9670 -1.3723 73.1315 47 50 54 2
198.1701 -1.3059 76.4548 47 50 54 2
197.4866 -1.1892 80.9928 47 50 54 2
198.2317 -1.0803 84.4727 174 174 166 3
197.9208 -0.8350 91.3888 107 132 85 1
198.2145 -0.6980 94.8931 107 132 85 1
197.6438 -0.0414 112.1236 107 132 85 1
198.0048 0.2765 122.4463 174 174 166 3
197.6185 0.3726 126.0141 47 50 54 2
202.0528 0.0889 0.0000 47 50 54 2
201.8294 0.0002 3.3468 47 50 54 2
201.8057 -0.0928 6.8098 107 132 85 1
201.2300 -0.1964 10.3856 107 132 85 1
201.0427 -0.5236 21.1270 107 132 85 1
201.8130 -0.6366 24.4209 107 132 85 1
201.0408 -1.0021 35.6250 174 174 166 3
201.0306 -1.0923 38.5229 47 50 54 2
201.3124 -1.1826 41.4537 47 50 54 2
201.0906 -1.2808 45.3065 47 50 54 2
201.1631 -1.4724 56.5404 107 132 85 1
201.9935 -1.4974 59.8930 47 50 54 2
201.0452 -1.4919 62.4194 174 174 166 3
201.8661 -1.4223 70.4347 47 50 54 2
202.0583 -1.3653 73.4832 47 50 54 2
201.2322 -1.2742 77.4987 47 50 54 2
200.8949 -1.2063 80.0203 174 174 166 3
201.7885 -1.0947 83.4223 107 132 85 1
201.6132 -0.8061 91.5503 107 132 85 1
201.3576 -0.4394 101.1915 107 132 85 1
202.0371 -0.2792 105.5210 107 132 85 1
201.9937 0.0670 116.0873 107 132 85 1
201.2758 0.1505 118.7849 107 132 85 1
201.5876 0.2359 121.9979 174 174 166 3
201.6964 0.3409 126.1683 47 50 54 2
205.3588 0.1089 0.5539 47 50 54 2
205.3370 0.0362 3.2076 47 50 54 2
204.7932 -0.0889 7.4158 174 174 166 3
205.0844 -0.1924 10.8500 174 174 166 3
205.6012 -0.2881 13.8356 174 174 166 3
205.5345 -0.3936 16.9329 174 174 166 3
205.4735 -0.5415 21.1178 174 174 166 3
205.1860 -0.6705 24.7316 174 174 166 3
204.9503 -0.7900 28.0871 174 174 166 3
205.1202 -0.9230 31.7790 174 174 166 3
204.3788 -1.0366 35.3454 174 174 166 3
204.4276 -1.1531 38.9887 47 50 54 2
205.4803 -1.2489 41.8925 47 50 54 2
204.7720 -1.3198 44.9369 47 50 54 2
204.3935 -1.3930 48.4996 174 174 166 3
205.1370 -1.4669 52.8850 174 174 166 3
205.4555 -1.4973 56.1602 174 174 166 3
204.5609 -1.5071 60.0582 174 174 166 3
205.3768 -1.4952 63.2911 47 50 54 2
205.2434 -1.4677 66.3554 174 174 166 3
205.1372 -1.4190 69.7652 47 50 54 2
205.4995 -1.3365 73.6969 47 50 54 2
204.6559 -1.2778 76.4173 47 50 54 2
204.8322 -1.1766 79.9405 174 174 166 3
204.8548 -0.9189 87.7098 107 132 85 1
205.2455 -0.7874 91.2637 107 132 85 1
205.1102 -0.6639 94.6816 107 132 85 1
204.6051 -0.2981 104.9992 107 132 85 1
205.2868 -0.1828 108.5485 107 132 85 1
205.0267 0.2291 123.0675 174 174 166 3
204.8327 0.3164 126.5173 47 50 54 2
208.3058 0.1369 0.5001 47 50 54 2
208.1177 0.0528 3.3833 47 50 54 2
208.4846 -0.0478 6.7511 47 50 54 2
208.3859 -0.1774 10.6953 47 50 54 2
208.6785 -0.2903 13.9525 47 50 54 2
208.5580 -0.4320 17.8420 47 50 54 2
209.0281 -0.5288 20.3777 47 50 54 2
209.0212 -0.6650 23.9456 47 50 54 2
207.9425 -0.8288 28.4744 47 50 54 2
208.8160 -0.9251 30.9194 47 50 54 2
208.9959 -1.0748 35.1732 47 50 54 2
208.5936 -1.1695 38.2281 47 50 54 2
207.9313 -1.2666 41.7789 47 50 54 2
208.5425 -1.3557 45.3356 47 50 54 2
208.8620 -1.4335 49.5828 47 50 54 2
207.9951 -1.4680 52.3188 47 50 54 2
208.2933 -1.4963 56.4610 47 50 54 2
208.7848 -1.4957 58.8713 47 50 54 2
208.8683 -1.4747 62.9262 47 50 54 2
208.6592 -1.4406 66.2024 47 50 54 2
208.0759 -1.3965 69.4015 47 50 54 2
208.5310 -1.3186 72.8744 47 50 54 2
208.8976 -1.2191 76.6038 174 174 166 3
208.6283 -1.1079 80.5892 107 132 85 1
209.0413 -1.0062 83.6323 107 132 85 1
207.9453 -0.7743 90.9183 107 132 85 1
208.5431 -0.6299 94.9643 107 132 85 1
209.1285 -0.4112 101.5357 107 132 85 1
208.1952 -0.2865 105.5112 107 132 85 1
209.0842 -0.1895 108.8877 107 132 85 1
207.9406 -0.0106 115.0280 107 132 85 1
208.9608 0.1696 122.4827 174 174 166 3
208.3634 0.2563 125.7209 47 50 54 2
211.9170 0.1774 0.0000 47 50 54 2
212.1283 0.0788 3.2986 47 50 54 2
211.9142 -0.0474 7.1341 47 50 54 2
211.9699 -0.1659 10.5253 47 50 54 2
211.7546 -0.2991 14.1425 47 50 54 2
211.4387 -0.4365 17.7579 47 50 54 2
211.7972 -0.5436 20.4721 47 50 54 2
211.5652 -0.7125 24.8171 47 50 54 2
211.7225 -0.8220 27.6421 47 50 54 2
212.4204 -0.9525 31.0764 47 50 54 2
211.4533 -1.0972 35.4251 47 50 54 2
212.1141 -1.1830 38.1391 47 50 54 2
212.3185 -1.2894 42.1468 47 50 54 2
211.7205 -1.3692 45.8866 47 50 54 2
211.4067 -1.4192 48.9196 47 50 54 2
212.0589 -1.4508 52.2786 47 50 54 2
211.9835 -1.4677 56.4533 47 50 54 2
211.4003 -1.4696 59.1890 47 50 54 2
211.7701 -1.4323 63.4000 47 50 54 2
211.8456 -1.3942 66.1842 47 50 54 2
211.3931 -1.3386 69.7903 47 50 54 2
212.6014 -1.2198 74.0412 47 50 54 2
211.9509 -1.1497 77.2150 174 174 166 3
211.7855 -0.9627 83.6834 107 132 85 1
211.4327 -0.6198 94.6470 107 132 85 1
212.5474 -0.3102 105.0998 107 132 85 1
211.6173 -0.2011 108.9958 107 132 85 1
212.4000 -0.1370 111.6829 107 132 85 1
212.1410 -0.0484 115.1284 107 132 85 1
212.3046 0.0306 118.4191 107 132 85 1
211.4004 0.1337 122.2081 174 174 166 3
212.4442 0.2078 125.7328 47 50 54 2
215.5083 0.1950 0.0000 47 50 54 2
215.1253 0.0974 3.0515 47 50 54 2
214.8857 -0.0306 6.8085 174 174 166 3
214.9371 -0.1463 10.0027 174 174 166 3
215.7901 -0.3051 14.1186 174 174 166 3
215.1295 -0.4555 17.9568 174 174 166 3
215.6912 -0.5608 20.5444 174 174 166 3
214.9554 -0.7286 24.8495 174 174 166 3
215.9133 -0.8488 27.9290 174 174 166 3
215.1798 -0.9799 31.6195 174 174 166 3
215.2995 -1.0832 34.7532 174 174 166 3
215.9035 -1.1762 37.9851 174 174 166 3
215.1304 -1.2838 42.2961 47 50 54 2
214.9026 -1.3365 44.9391 47 50 54 2
215.4735 -1.3854 48.8647 174 174 166 3
215.4330 -1.4127 52.5770 174 174 166 3
216.0220 -1.4061 55.9366 174 174 166 3
215.7199 -1.3997 58.8810 174 174 166 3
215.5509 -1.3569 63.5818 174 174 166 3
216.0568 -1.2993 66.5889 174 174 166 3
215.8083 -1.2448 69.7966 47 50 54 2
215.8393 -1.1669 73.2873 47 50 54 2
215.7464 -1.0729 77.1561 47 50 54 2
216.0874 -0.9674 80.8375 174 174 166 3
215.9437 -0.8757 84.2530 174 174 166 3
214.8927 -0.7877 87.9196 107 132 85 1
215.8748 -0.6709 91.6171 107 132 85 1
215.7381 -0.4942 98.2222 107 132 85 1
216.0509 -0.3295 104.7990 107 132 85 1
215.4673 -0.0861 114.9703 107 132 85 1
215.8437 0.0742 121.9316 174 174 166 3
215.5806 0.1917 126.5406 47 50 54 2
218.5878 0.1977 0.1404 47 50 54 2
218.9316 0.0994 3.1242 47 50 54 2
219.2676 -0.0484 7.2550 107 132 85 1
218.4484 -1.1776 38.6315 47 50 54 2
219.4566 -1.2460 42.5127 47 50 54 2
219.3347 -1.2976 46.0018 174 174 166 3
219.1372 -1.3416 51.9056 107 132 85 1
218.5619 -1.3251 59.8900 107 132 85 1
219.3339 -1.2197 66.1586 107 132 85 1
218.6793 -1.0782 74.0460 47 50 54 2
219.3218 -0.9915 77.0450 47 50 54 2
218.7590 -0.9285 80.1602 47 50 54 2
218.9847 -0.8360 83.6610 47 50 54 2
219.2075 -0.7482 87.0326 174 174 166 3
219.3606 -0.6362 91.5817 174 174 166 3
218.3932 -0.4975 97.7470 107 132 85 1
218.8364 -0.4240 100.9419 107 132 85 1
219.1375 -0.3272 105.4271 107 132 85 1
219.2456 -0.1757 112.5768 107 132 85 1
218.9608 -0.0166 119.5757 107 132 85 1
218.9752 0.0648 122.9759 174 174 166 3
218.4785 0.1384 125.6872 47 50 54 2
222.3082 0.1922 0.2435 47 50 54 2
222.4435 0.0650 3.9460 47 50 54 2
222.0466 -0.0305 6.5966 107 132 85 1
222.0980 -0.4575 17.5385 107 132 85 1
222.7974 -0.7287 24.6766 107 132 85 1
221.8886 -1.1268 38.0350 47 50 54 2
221.9559 -1.2074 42.6168 47 50 54 2
223.1103 -1.2194 45.8825 47 50 54 2
222.3890 -1.2596 52.8661 107 132 85 1
222.2504 -1.2519 55.8971 107 132 85 1
222.0589 -1.2308 59.2689 107 132 85 1
222.3377 -1.1183 66.7469 107 132 85 1
222.2661 -1.0712 69.4870 107 132 85 1
223.0905 -0.9735 73.2030 107 132 85 1
222.3887 -0.9028 77.5393 174 174 166 3
222.6748 -0.8440 79.9539 47 50 54 2
222.0133 -0.7688 84.0764 47 50 54 2
221.9908 -0.6908 87.7037 47 50 54 2
221.8884 -0.6330 90.4962 47 50 54 2
222.3238 -0.5509 94.3415 47 50 54 2
222.6221 -0.4792 97.9995 174 174 166 3
222.2811 -0.4109 101.6542 174 174 166 3
222.8667 -0.3420 105.4384 174 174 166 3
222.6375 -0.2831 108.5243 107 132 85 1
222.3342 -0.2217 111.5656 107 132 85 1
222.4698 0.0244 122.7341 174 174 166 3
221.9071 0.1135 126.0037 47 50 54 2
226.2098 0.1859 0.0000 47 50 54 2
225.6262 0.0697 3.4632 47 50 54 2
226.4955 -0.0705 7.1848 107 132 85 1
226.2123 -0.2082 10.8566 107 132 85 1
225.5979 -0.3055 13.4400 107 132 85 1
225.4127 -1.0209 35.5310 174 174 166 3
225.6721 -1.0696 38.3758 47 50 54 2
226.3462 -1.0982 41.5241 47 50 54 2
226.0384 -1.1406 45.5969 47 50 54 2
225.9718 -1.1539 49.5727 107 132 85 1
226.0116 -1.1459 52.8699 107 132 85 1
226.4874 -1.1092 56.1367 107 132 85 1
225.5227 -1.0671 63.0901 107 132 85 1
226.5265 -0.9760 66.7938 107 132 85 1
225.9264 -0.7582 80.4203 47 50 54 2
226.0950 -0.6890 84.1843 47 50 54 2
225.4023 -0.6466 87.3430 47 50 54 2
225.5229 -0.5734 91.5979 47 50 54 2
226.1898 -0.5207 94.5728 47 50 54 2
226.3982 -0.4623 98.3749 47 50 54 2
225.8923 -0.4181 101.3150 47 50 54 2
225.8508 -0.3584 105.0606 47 50 54 2
225.9219 -0.2976 108.6934 174 174 166 3
225.7665 -0.2423 111.7117 174 174 166 3
225.7624 -0.1566 116.0370 174 174 166 3
226.4916 -0.0891 119.3481 174 174 166 3
226.6214 -0.0026 122.9655 174 174 166 3
226.4062 0.0886 126.3618 47 50 54 2
229.8452 0.1621 0.0000 47 50 54 2
229.0638 0.0664 2.9835 47 50 54 2
229.6243 -0.3186 13.5259 107 132 85 1
228.8978 -0.4491 17.1744 107 132 85 1
229.4364 -0.6872 24.5118 107 132 85 1
229.5662 -0.8623 31.4295 107 132 85 1
229.6021 -0.9724 37.9553 174 174 166 3
229.7409 -1.0057 41.7300 47 50 54 2
229.9348 -1.0155 44.9412 47 50 54 2
229.0382 -1.0134 56.0626 107 132 85 1
229.0437 -0.9438 62.4733 107 132 85 1
230.1104 -0.7576 73.1172 107 132 85 1
229.6764 -0.7108 77.3970 107 132 85 1
228.9487 -0.6846 80.5728 47 50 54 2
229.5981 -0.6166 84.6196 47 50 54 2
229.7054 -0.5794 87.4811 47 50 54 2
229.8928 -0.5335 91.1982 174 174 166 3
230.0737 -0.4915 94.7878 47 50 54 2
229.9502 -0.4610 97.5267 47 50 54 2
229.2848 -0.4143 101.4692 47 50 54 2
229.8605 -0.3655 105.1182 47 50 54 2
229.8033 -0.3183 108.3245 47 50 54 2
229.7073 -0.2615 111.7362 47 50 54 2
229.6028 -0.1970 115.1512 47 50 54 2
229.1797 -0.1253 118.4555 47 50 54 2
229.2010 -0.0366 122.2164 47 50 54 2
229.3678 0.0627 126.0296 47 50 54 2
232.5353 0.1387 0.0000 47 50 54 2
233.6267 0.0230 3.2119 47 50 54 2
233.0805 -0.0887 6.6338 107 132 85 1
233.2227 -0.5504 20.9048 107 132 85 1
232.8322 -0.8067 32.0312 107 132 85 1
233.1441 -0.8416 35.0826 107 132 85 1
233.2493 -0.8718 38.5486 47 50 54 2
232.3776 -0.9226 42.4361 47 50 54 2
233.0768 -0.9009 46.0819 174 174 166 3
232.8355 -0.8544 56.4270 107 132 85 1
233.0424 -0.8103 60.0228 107 132 85 1
232.6926 -0.7926 62.9655 107 132 85 1
233.2039 -0.6898 70.2415 107 132 85 1
232.4172 -0.6420 76.8470 107 132 85 1
233.2653 -0.5820 80.7086 47 50 54 2
233.2760 -0.5506 84.3428 47 50 54 2
232.7735 -0.5307 87.7691 47 50 54 2
233.3906 -0.4036 101.7801 174 174 166 3
233.3627 -0.3721 104.6087 47 50 54 2
232.7452 -0.3227 108.3527 47 50 54 2
233.5748 -0.2685 111.8616 47 50 54 2
233.0680 -0.2017 115.4743 47 50 54 2
232.6383 -0.1141 119.5305 47 50 54 2
233.2973 -0.0505 122.2528 47 50 54 2
232.8129 0.0535 126.1703 47 50 54 2
236.1645 0.0992 0.0544 47 50 54 2
236.5028 -0.0049 3.2797 47 50 54 2
236.8592 -0.1057 6.4057 174 174 166 3
236.5714 -0.3489 14.4768 107 132 85 1
237.0246 -0.5809 24.2152 107 132 85 1
236.7891 -0.6471 27.7268 107 132 85 1
236.7339 -0.6978 31.3482 107 132 85 1
236.7460 -0.7277 34.4484 107 132 85 1
236.7990 -0.7479 38.2630 47 50 54 2
236.4370 -0.7690 42.0374 47 50 54 2
236.9872 -0.7390 46.0444 174 174 166 3
236.5993 -0.7427 49.0213 107 132 85 1
236.7180 -0.6550 59.7960 107 132 85 1
236.7498 -0.5236 76.4803 107 132 85 1
236.0097 -0.5171 80.9473 47 50 54 2
236.8630 -0.4849 83.8557 47 50 54 2
236.0123 -0.4862 86.9264 47 50 54 2
236.4753 -0.4177 98.5950 107 132 85 1
236.9051 -0.3933 101.4434 107 132 85 1
235.9775 -0.3553 105.6169 174 174 166 3
236.6153 -0.3127 108.8616 174 174 166 3
237.0176 -0.2736 111.4375 174 174 166 3
236.1969 -0.2081 115.2356 174 174 166 3
235.9375 -0.1275 119.1239 174 174 166 3
236.4349 -0.0413 122.7760 174 174 166 3
236.2353 0.0288 125.4998 47 50 54 2
239.6891 0.0592 0.0000 47 50 54 2
239.6088 -0.0291 3.1194 47 50 54 2
240.0342 -0.1456 7.1347 107 132 85 1
240.3846 -0.2268 10.1317 107 132 85 1
239.4377 -0.4759 20.7486 107 132 85 1
239.7082 -0.6123 31.6352 107 132 85 1
239.6977 -0.6373 38.3765 47 50 54 2
240.0866 -0.6183 41.3989 47 50 54 2
240.5425 -0.5829 45.4682 47 50 54 2
240.4048 -0.5448 52.5982 107 132 85 1
239.7709 -0.4998 62.9360 107 132 85 1
240.2574 -0.4603 66.3523 107 132 85 1
240.5439 -0.4246 73.1144 107 132 85 1
240.4262 -0.4205 77.0371 107 132 85 1
240.2906 -0.4202 80.3948 47 50 54 2
240.2429 -0.4187 84.2118 47 50 54 2
239.5201 -0.4281 87.6900 47 50 54 2
240.5816 -0.4085 90.8583 107 132 85 1
239.4993 -0.3785 101.3575 107 132 85 1
239.7038 -0.3485 104.7479 107 132 85 1
240.6062 -0.3072 108.0336 107 132 85 1
239.5573 -0.2661 111.4040 107 132 85 1
240.2987 -0.0514 122.1945 174 174 166 3
240.3273 0.0485 126.2755 47 50 54 2
243.4244 0.0032 0.3691 47 50 54 2
243.7397 -0.0671 3.1076 47 50 54 2
243.6833 -0.1635 7.2429 107 132 85 1
243.8094 -0.2341 10.5052 107 132 85 1
243.0550 -0.3589 16.9015 107 132 85 1
242.9193 -0.4206 20.8873 107 132 85 1
243.9560 -0.4568 27.8703 107 132 85 1
243.8401 -0.4723 31.8608 107 132 85 1
243.1425 -0.4933 38.8147 47 50 54 2
244.0281 -0.4379 42.4575 47 50 54 2
243.0386 -0.4695 45.0436 47 50 54 2
244.1161 -0.3194 63.3816 107 132 85 1
243.7752 -0.3230 69.9120 107 132 85 1
242.9935 -0.3485 73.3477 107 132 85 1
242.9591 -0.3581 80.3320 47 50 54 2
243.1970 -0.3595 83.4349 47 50 54 2
243.8576 -0.3574 87.9904 47 50 54 2
243.1724 -0.3720 90.9932 107 132 85 1
243.8435 -0.3620 94.9384 107 132 85 1
243.8051 -0.3552 98.2430 107 132 85 1
244.1058 -0.3161 104.4745 107 132 85 1
243.6723 -0.1152 118.6507 107 132 85 1
243.8738 -0.0391 122.2377 47 50 54 2
243.4337 0.0507 126.2428 47 50 54 2
246.6948 -0.0285 0.0000 47 50 54 2
247.4756 -0.1122 3.8520 47 50 54 2
246.9571 -0.1641 6.8386 174 174 166 3
246.4941 -0.2288 10.6467 174 174 166 3
247.3318 -0.2746 14.4575 174 174 166 3
246.8755 -0.3113 17.3550 174 174 166 3
246.9227 -0.3380 20.7936 174 174 166 3
247.2483 -0.3475 25.0766 174 174 166 3
246.7936 -0.3656 28.3769 174 174 166 3
246.4095 -0.3763 31.8142 174 174 166 3
246.8838 -0.3456 35.3408 174 174 166 3
246.6632 -0.3402 38.3171 47 50 54 2
246.8173 -0.3137 41.5459 47 50 54 2
247.4421 -0.2563 45.6771 47 50 54 2
247.4410 -0.2322 49.4238 174 174 166 3
246.5432 -0.2600 51.9352 174 174 166 3
246.9743 -0.2199 56.2005 174 174 166 3
246.4508 -0.2316 59.8391 174 174 166 3
247.0436 -0.2033 62.5302 174 174 166 3
246.6153 -0.2211 66.5277 174 174 166 3
246.5748 -0.2310 70.5814 174 174 166 3
247.5181 -0.2116 73.1028 174 174 166 3
247.0428 -0.2425 76.5788 174 174 166 3
247.1372 -0.2641 80.9243 47 50 54 2
247.4617 -0.2766 84.4442 47 50 54 2
246.5486 -0.3106 88.0414 174 174 166 3
247.3964 -0.3049 90.7472 174 174 166 3
246.8035 -0.3203 93.8796 174 174 166 3
247.4279 -0.3095 97.5482 174 174 166 3
246.8471 -0.3043 101.5057 174 174 166 3
247.0218 -0.2785 105.0818 174 174 166 3
246.8847 -0.2450 108.6846 174 174 166 3
246.5255 -0.1986 112.5553 174 174 166 3
246.3761 -0.1479 115.8453 174 174 166 3
246.7903 -0.0873 119.0528 174 174 166 3
246.6939 -0.0284 122.1231 47 50 54 2
246.6913 0.0562 126.2435 47 50 54 2
250.7711 -0.0815 0.3477 47 50 54 2
250.8449 -0.1309 3.8271 47 50 54 2
250.5357 -0.1761 7.6102 47 50 54 2
250.1785 -0.2036 10.1156 47 50 54 2
250.5888 -0.2295 13.9188 47 50 54 2
250.5598 -0.2469 17.9461 47 50 54 2
250.3191 -0.2568 20.6384 47 50 54 2
250.5861 -0.2450 24.6638 47 50 54 2
250.0185 -0.2522 28.1553 47 50 54 2
250.6921 -0.2115 30.9908 47 50 54 2
251.1294 -0.1679 34.5137 47 50 54 2
249.9285 -0.1907 38.5145 47 50 54 2
250.2670 -0.1467 42.2010 47 50 54 2
250.1980 -0.1243 45.7717 47 50 54 2
250.9417 -0.0670 49.5276 47 50 54 2
251.0671 -0.0488 52.4844 47 50 54 2
250.0939 -0.0825 56.1188 47 50 54 2
250.2965 -0.0719 59.6519 47 50 54 2
250.8955 -0.0546 62.9572 47 50 54 2
249.8746 -0.1052 66.6213 47 50 54 2
251.1184 -0.0833 70.0289 47 50 54 2
250.8741 -0.1136 73.1550 47 50 54 2
250.6021 -0.1565 77.5767 47 50 54 2
250.4434 -0.1805 80.0487 47 50 54 2
250.6671 -0.2082 84.2986 47 50 54 2
250.5306 -0.2348 87.9546 47 50 54 2
250.7400 -0.2467 91.3036 47 50 54 2
250.5352 -0.2588 94.3369 47 50 54 2
250.0595 -0.2681 97.5438 47 50 54 2
250.9697 -0.2437 101.2435 47 50 54 2
250.7551 -0.2244 105.2675 47 50 54 2
250.6902 -0.2009 108.1260 47 50 54 2
250.1987 -0.1714 111.4232 47 50 54 2
250.9375 -0.1058 115.6147 47 50 54 2
250.7230 -0.0547 119.1072 47 50 54 2
250.1754 -0.0017 122.5293 47 50 54 2
250.8535 0.0539 125.6433 47 50 54 2
254.3420 -0.1137 0.1193 47 50 54 2
254.3273 -0.1400 3.3234 47 50 54 2
253.4262 -0.1676 7.5392 47 50 54 2
253.8736 -0.1766 10.3735 47 50 54 2
253.3942 -0.1889 14.4668 47 50 54 2
253.7189 -0.1794 17.2801 47 50 54 2
253.4701 -0.1715 21.1182 47 50 54 2
253.4771 -0.1499 24.7442 47 50 54 2
254.1821 -0.1022 27.5607 47 50 54 2
254.1903 -0.0679 31.1440 47 50 54 2
253.9429 -0.0444 34.5920 47 50 54 2
254.3903 0.0144 38.5955 47 50 54 2
254.2025 0.0317 41.5247 47 50 54 2
253.4466 0.0239 45.1538 47 50 54 2
254.3980 0.0874 48.8434 47 50 54 2
254.1518 0.0881 53.0971 47 50 54 2
254.2692 0.0936 55.6770 47 50 54 2
253.9331 0.0725 59.4577 47 50 54 2
253.6152 0.0465 62.7721 47 50 54 2
254.1330 0.0405 66.4265 47 50 54 2
254.5655 0.0279 69.4975 47 50 54 2
254.3860 -0.0125 73.0694 47 50 54 2
254.4557 -0.0533 77.1709 47 50 54 2
253.5167 -0.1139 80.8618 47 50 54 2
254.3123 -0.1266 84.2912 47 50 54 2
254.0643 -0.1594 87.7650 47 50 54 2
254.4553 -0.1720 91.4432 47 50 54 2
254.3211 -0.1840 93.9593 47 50 54 2
253.4986 -0.2047 98.1908 47 50 54 2
254.1663 -0.1839 101.6898 47 50 54 2
253.8931 -0.1706 105.3517 47 50 54 2
254.3959 -0.1407 108.1654 47 50 54 2
253.5006 -0.1169 112.1133 47 50 54 2
253.4029 -0.0743 115.7901 47 50 54 2
254.3744 -0.0294 118.4560 47 50 54 2
253.3733 0.0208 122.8261 47 50 54 2
254.1619 0.0658 126.0265 47 50 54 2
