ply
format ascii 1.0
comment generated by citygen
element vertex 1251
property float x
property float y
property float z
property uchar red
property uchar green
property uchar blue
property int class
end_header
146.0843 0.2678 247.0375 174 174 166 3
144.9763 0.3183 250.0846 47 50 54 2
145.7460 0.3426 254.3740 47 50 54 2
149.1991 -0.1615 128.0000 47 50 54 2
148.8959 -0.1551 131.7078 47 50 54 2
148.6992 -0.1243 138.8098 47 50 54 2
149.0510 -0.0966 141.4539 47 50 54 2
148.9163 -0.0766 145.9454 47 50 54 2
148.6316 -0.0756 148.5810 174 174 166 3
149.3482 -0.0364 152.0179 107 132 85 1
149.1319 -0.0423 159.1373 107 132 85 1
149.0035 -0.1047 170.1664 174 174 166 3
148.5607 -0.1452 173.1339 47 50 54 2
148.9836 -0.1637 176.4253 47 50 54 2
149.0758 -0.2074 180.9314 47 50 54 2
148.8879 -0.2449 184.1105 47 50 54 2
148.7782 -0.2766 187.1975 47 50 54 2
148.6332 -0.3066 190.4743 47 50 54 2
149.4376 -0.3052 194.2258 47 50 54 2
148.7932 -0.3361 198.5735 47 50 54 2
149.0167 -0.3281 201.8837 47 50 54 2
148.4995 -0.3309 205.4042 174 174 166 3
149.5581 -0.2828 208.0585 174 174 166 3
149.6045 -0.2421 212.3216 47 50 54 2
149.4858 -0.2057 215.6294 174 174 166 3
148.5002 -0.0621 226.2116 107 132 85 1
148.7556 0.0537 232.6325 107 132 85 1
148.4031 0.2448 247.4301 174 174 166 3
148.7984 0.2547 249.9220 47 50 54 2
148.8572 0.2669 254.4255 47 50 54 2
152.0062 -0.1007 128.4375 47 50 54 2
152.8783 -0.0576 131.1178 47 50 54 2
151.9445 -0.0181 138.5564 174 174 166 3
152.7044 0.0348 141.7910 47 50 54 2
153.0240 0.0772 146.0842 47 50 54 2
152.6073 0.0754 148.5648 47 50 54 2
152.0942 0.0693 152.4497 174 174 166 3
153.0527 0.1072 155.7247 107 132 85 1
152.5813 0.0828 159.6740 107 132 85 1
152.0862 0.0501 163.1226 107 132 85 1
151.9950 -0.0024 169.7404 47 50 54 2
152.4880 -0.0299 174.0680 47 50 54 2
151.9305 -0.0771 176.8363 47 50 54 2
153.1108 -0.0813 180.4963 174 174 166 3
152.2407 -0.1461 184.1730 174 174 166 3
152.2224 -0.1777 187.5361 174 174 166 3
152.6724 -0.1856 190.3970 174 174 166 3
152.9430 -0.1986 194.4018 47 50 54 2
152.8879 -0.2097 198.6268 47 50 54 2
152.9491 -0.2067 200.9271 47 50 54 2
152.9829 -0.1907 205.4802 47 50 54 2
152.1969 -0.1989 208.2912 47 50 54 2
152.9441 -0.1460 211.7386 47 50 54 2
153.1174 -0.1059 215.1177 47 50 54 2
152.8953 0.0238 226.0985 107 132 85 1
152.8292 0.0623 229.3398 107 132 85 1
152.7398 0.1018 232.9946 107 132 85 1
152.9530 0.1365 236.6484 107 132 85 1
152.6251 0.1818 246.4580 174 174 166 3
151.9199 0.1936 250.9688 47 50 54 2
152.5492 0.1654 254.5898 47 50 54 2
156.2271 -0.0115 128.0000 47 50 54 2
155.8350 0.0276 131.8021 47 50 54 2
155.7712 0.1474 142.6114 174 174 166 3
155.7303 0.1661 145.0689 47 50 54 2
156.3558 0.2120 149.2337 47 50 54 2
156.1719 0.2142 151.9207 47 50 54 2
156.5644 0.2292 155.6014 174 174 166 3
155.7905 0.1952 159.0219 107 132 85 1
155.9275 0.1802 162.8517 107 132 85 1
156.6131 0.1687 167.0973 47 50 54 2
156.3149 0.1318 169.9808 47 50 54 2
155.4507 0.0649 173.7721 47 50 54 2
156.5097 0.0639 176.7841 174 174 166 3
155.5822 -0.1136 195.1123 174 174 166 3
155.4627 -0.1229 198.5277 174 174 166 3
156.1221 -0.0955 202.1211 47 50 54 2
156.2107 -0.0809 205.3183 47 50 54 2
155.6346 -0.0804 208.8782 47 50 54 2
155.8041 -0.0539 211.6323 47 50 54 2
155.8114 -0.0150 216.0030 47 50 54 2
155.7721 0.0185 219.5772 107 132 85 1
156.1274 0.0832 225.6813 107 132 85 1
156.6084 0.1145 228.8712 107 132 85 1
155.5535 0.1414 236.3082 107 132 85 1
155.5981 0.1480 239.6935 107 132 85 1
155.9037 0.1416 243.3475 107 132 85 1
156.5128 0.1153 246.9462 174 174 166 3
155.4611 0.1123 250.6170 47 50 54 2
156.1638 0.0624 254.0852 47 50 54 2
159.8165 0.0692 128.0000 47 50 54 2
158.9786 0.1152 132.0892 174 174 166 3
159.2784 0.2859 145.3952 174 174 166 3
159.0240 0.2979 148.7044 47 50 54 2
159.3690 0.3201 152.7866 47 50 54 2
159.3633 0.3173 156.4889 174 174 166 3
160.0159 0.3032 163.2732 174 174 166 3
159.0769 0.2485 166.5570 47 50 54 2
159.7858 0.2339 170.2415 47 50 54 2
159.2713 0.1828 173.6286 47 50 54 2
159.1250 0.1474 176.4894 174 174 166 3
160.0862 0.1379 180.3438 107 132 85 1
159.9765 0.1008 184.0461 107 132 85 1
159.5105 0.0566 187.8751 107 132 85 1
159.6579 0.0288 198.0757 107 132 85 1
158.9248 0.0146 204.6592 174 174 166 3
160.0985 0.0774 209.0118 174 174 166 3
159.5899 0.0774 212.1924 174 174 166 3
159.3746 0.0914 215.5809 47 50 54 2
159.3086 0.1086 218.6786 47 50 54 2
159.9185 0.1420 222.0970 47 50 54 2
159.4532 0.1537 229.2936 107 132 85 1
160.1292 0.1560 233.1163 107 132 85 1
159.6837 0.1416 236.6947 107 132 85 1
159.2655 0.1244 240.0459 107 132 85 1
159.4716 0.0551 247.1289 174 174 166 3
159.2396 0.0189 250.4308 47 50 54 2
160.0541 -0.0594 254.1808 47 50 54 2
163.1422 0.1454 128.1260 47 50 54 2
162.5097 0.2002 131.7616 47 50 54 2
162.9704 0.2721 135.2421 107 132 85 1
163.3988 0.4106 145.7039 174 174 166 3
162.7303 0.4128 149.4978 47 50 54 2
162.8356 0.4225 152.6470 47 50 54 2
162.9205 0.4214 156.2966 47 50 54 2
163.4858 0.4243 159.5908 174 174 166 3
163.0749 0.3920 163.0357 47 50 54 2
163.2452 0.3674 166.7116 47 50 54 2
163.0664 0.3306 170.1522 47 50 54 2
163.1644 0.3035 173.2365 174 174 166 3
162.4900 0.2408 177.5764 107 132 85 1
163.3523 0.1818 190.5734 107 132 85 1
162.6894 0.1462 194.9798 107 132 85 1
163.4858 0.1761 198.1110 107 132 85 1
163.0169 0.1610 201.1719 107 132 85 1
163.2552 0.1775 204.4499 107 132 85 1
163.2618 0.1879 207.8727 107 132 85 1
162.9412 0.2005 215.4100 174 174 166 3
163.2161 0.2153 219.1709 174 174 166 3
162.6865 0.2042 221.8851 47 50 54 2
162.6579 0.1984 226.5691 47 50 54 2
162.6775 0.1878 229.4953 174 174 166 3
162.4198 0.1678 232.6381 174 174 166 3
163.2587 0.1256 237.0760 174 174 166 3
163.0419 0.0869 240.2279 174 174 166 3
163.3188 0.0296 243.7486 174 174 166 3
163.2015 -0.0229 246.9445 174 174 166 3
162.3963 -0.0642 250.3701 47 50 54 2
162.8762 -0.1511 254.2912 47 50 54 2
166.5897 0.2183 128.1213 47 50 54 2
166.0883 0.2850 131.7625 47 50 54 2
166.9691 0.3586 134.5642 107 132 85 1
166.1189 0.4433 141.6008 107 132 85 1
166.7252 0.5150 148.9240 174 174 166 3
166.1788 0.5100 152.2513 47 50 54 2
166.8993 0.5238 156.4397 47 50 54 2
166.5423 0.5037 159.5546 47 50 54 2
166.1873 0.4745 163.0902 47 50 54 2
166.5122 0.4609 166.1475 47 50 54 2
166.9973 0.4470 169.5590 174 174 166 3
166.0089 0.3267 181.1143 107 132 85 1
165.9235 0.2916 187.0012 107 132 85 1
166.8827 0.3114 198.1137 107 132 85 1
166.8205 0.3157 205.1001 107 132 85 1
167.0120 0.3066 219.6221 174 174 166 3
166.0187 0.2726 222.2325 47 50 54 2
166.2913 0.2521 225.8849 47 50 54 2
166.4544 0.2152 229.6650 174 174 166 3
166.1034 0.1728 232.8685 47 50 54 2
166.4877 0.1231 236.0111 47 50 54 2
165.9497 0.0613 239.7506 47 50 54 2
166.7409 -0.0406 244.1252 47 50 54 2
165.9541 -0.0891 247.0994 47 50 54 2
166.1679 -0.1589 249.9928 47 50 54 2
166.4206 -0.2705 254.6000 47 50 54 2
170.0368 0.2819 128.0000 47 50 54 2
169.5478 0.3457 131.1757 47 50 54 2
170.5097 0.5803 145.7640 174 174 166 3
170.5192 0.5966 148.4790 174 174 166 3
170.1311 0.5991 151.9876 47 50 54 2
169.7295 0.5898 155.8599 47 50 54 2
170.3640 0.5925 159.7826 47 50 54 2
170.3949 0.5764 163.4116 47 50 54 2
169.8859 0.5465 166.4103 174 174 166 3
169.3964 0.5093 170.1110 107 132 85 1
169.6606 0.4944 173.4844 107 132 85 1
169.7228 0.4738 177.2434 107 132 85 1
169.5746 0.4390 183.6752 107 132 85 1
170.4162 0.4614 186.9153 107 132 85 1
169.7651 0.4292 191.4795 107 132 85 1
170.4138 0.4538 194.1964 107 132 85 1
170.3010 0.4491 197.8098 107 132 85 1
169.6981 0.4255 202.1257 107 132 85 1
169.8973 0.4325 204.5694 107 132 85 1
169.4101 0.4032 211.8055 107 132 85 1
170.1622 0.3739 219.6289 47 50 54 2
170.4643 0.3403 222.9931 47 50 54 2
170.5184 0.3014 225.7158 47 50 54 2
169.4525 0.2304 229.5864 174 174 166 3
170.1087 0.1575 233.3408 107 132 85 1
170.5761 0.0704 236.9770 47 50 54 2
170.5331 -0.0060 240.0070 47 50 54 2
170.0457 -0.0853 243.3416 47 50 54 2
170.2424 -0.1725 246.4370 47 50 54 2
169.3918 -0.2507 250.1778 47 50 54 2
170.4559 -0.3675 253.5250 47 50 54 2
173.9203 0.3462 128.0000 47 50 54 2
173.9416 0.4301 131.5011 47 50 54 2
173.5857 0.4850 134.4125 174 174 166 3
173.1352 0.5531 138.8604 174 174 166 3
173.8937 0.6116 142.5116 47 50 54 2
172.9567 0.6266 145.8961 47 50 54 2
173.8737 0.6594 148.8369 47 50 54 2
173.6025 0.6667 152.9553 47 50 54 2
173.2819 0.6613 156.2794 47 50 54 2
173.9025 0.6672 159.9666 47 50 54 2
173.4528 0.6496 162.7104 47 50 54 2
172.8836 0.6202 166.7013 174 174 166 3
173.2883 0.6017 173.6635 107 132 85 1
173.3252 0.5832 180.0632 107 132 85 1
173.1226 0.5651 187.3793 107 132 85 1
173.4617 0.5758 197.3700 107 132 85 1
173.5533 0.5751 201.3991 107 132 85 1
172.9813 0.5462 204.7559 107 132 85 1
173.4808 0.5458 208.8505 107 132 85 1
173.3502 0.4933 214.8878 174 174 166 3
173.6104 0.4507 218.7370 47 50 54 2
172.9782 0.3807 222.5470 47 50 54 2
173.1749 0.3230 225.7238 47 50 54 2
173.4664 0.2250 230.0976 107 132 85 1
174.1214 0.0378 236.7689 174 174 166 3
174.0134 -0.0548 239.8699 174 174 166 3
173.0164 -0.1424 243.3240 174 174 166 3
173.7259 -0.2773 247.2666 174 174 166 3
173.2763 -0.3471 249.9783 47 50 54 2
172.9532 -0.4599 254.3295 47 50 54 2
177.0256 0.4016 128.5252 47 50 54 2
177.5933 0.4898 131.9667 47 50 54 2
176.9862 0.5451 135.0448 47 50 54 2
177.1014 0.6136 139.0983 47 50 54 2
177.2990 0.6599 142.5756 47 50 54 2
176.7544 0.6835 145.8497 47 50 54 2
177.3030 0.7135 149.4652 47 50 54 2
176.5078 0.7133 152.4229 47 50 54 2
177.4473 0.7342 155.7878 174 174 166 3
176.5791 0.7201 159.4727 47 50 54 2
176.8951 0.7223 163.5691 47 50 54 2
177.1153 0.7231 166.8042 47 50 54 2
177.1907 0.7218 169.4409 174 174 166 3
176.4667 0.6932 177.2952 107 132 85 1
176.4175 0.6905 180.2052 107 132 85 1
176.7076 0.7037 187.4617 107 132 85 1
176.5663 0.6995 194.8343 107 132 85 1
176.4648 0.6923 197.8351 107 132 85 1
176.9271 0.7017 200.8867 107 132 85 1
177.1730 0.5704 215.3756 47 50 54 2
177.5312 0.5151 218.6656 47 50 54 2
177.1133 0.4097 223.1243 47 50 54 2
176.6178 0.3403 225.7527 174 174 166 3
177.5861 0.2443 229.1554 107 132 85 1
176.9524 -0.3616 247.6239 174 174 166 3
177.2466 -0.4753 251.0191 47 50 54 2
177.3145 -0.5630 253.9564 47 50 54 2
179.9581 0.4311 128.4693 47 50 54 2
180.4292 0.4954 130.9558 47 50 54 2
180.2585 0.5765 134.9154 47 50 54 2
180.2463 0.6282 137.9236 47 50 54 2
179.9814 0.6820 142.0215 47 50 54 2
180.7124 0.7278 145.8822 47 50 54 2
180.4841 0.7528 149.6278 174 174 166 3
180.7796 0.7961 160.0973 174 174 166 3
181.0698 0.8085 163.1948 47 50 54 2
180.9079 0.8112 166.0900 47 50 54 2
180.2845 0.8034 170.1467 47 50 54 2
180.5979 0.8176 173.0203 174 174 166 3
181.1043 0.8636 184.4802 107 132 85 1
181.0014 0.8668 188.1268 107 132 85 1
180.2030 0.8103 201.6916 107 132 85 1
181.1056 0.7119 211.7380 174 174 166 3
180.1224 0.6284 215.1011 47 50 54 2
179.9815 0.5237 219.5539 47 50 54 2
180.0664 0.4364 222.7971 174 174 166 3
179.9010 0.3302 226.2942 107 132 85 1
180.8199 0.2207 229.4924 107 132 85 1
179.8970 -0.0144 236.2400 107 132 85 1
181.1108 -0.1506 239.4382 107 132 85 1
180.0443 -0.2819 243.4811 107 132 85 1
180.8050 -0.4172 246.9108 174 174 166 3
180.6055 -0.5368 250.6450 47 50 54 2
180.5030 -0.6253 253.6525 47 50 54 2
184.3460 0.4584 128.3868 47 50 54 2
183.7287 0.5283 131.4580 47 50 54 2
183.7037 0.5929 134.5982 174 174 166 3
184.2239 0.6551 138.0387 174 174 166 3
184.4342 0.7042 141.3707 174 174 166 3
183.6869 0.7445 145.1867 174 174 166 3
184.2968 0.7883 149.5779 107 132 85 1
183.6605 0.8578 162.8766 174 174 166 3
183.8567 0.8817 167.0919 47 50 54 2
184.1971 0.9047 170.0172 47 50 54 2
183.6728 0.9056 173.0171 47 50 54 2
184.5747 0.9682 180.1089 107 132 85 1
183.3856 0.9422 183.6632 107 132 85 1
184.1002 0.9738 194.7603 107 132 85 1
184.0359 0.9572 197.8866 107 132 85 1
183.7874 0.8242 208.5489 174 174 166 3
183.6918 0.7625 211.5725 47 50 54 2
184.0370 0.6811 215.1615 47 50 54 2
183.4869 0.5544 219.4462 47 50 54 2
184.2583 0.4671 222.2338 174 174 166 3
183.8291 -0.0821 236.6885 107 132 85 1
184.0390 -0.3336 243.0390 107 132 85 1
184.3561 -0.4696 246.6080 174 174 166 3
183.3751 -0.6006 251.0234 47 50 54 2
184.2351 -0.7116 254.3114 47 50 54 2
187.4193 0.4571 128.0000 47 50 54 2
187.3331 0.5388 131.4786 47 50 54 2
187.9688 0.6134 135.1467 107 132 85 1
187.3036 0.7183 141.7028 107 132 85 1
187.7707 0.9024 159.2572 107 132 85 1
188.0970 0.9379 162.7019 107 132 85 1
187.2340 0.9559 166.8405 47 50 54 2
187.4519 0.9909 170.5523 47 50 54 2
187.3854 1.0100 173.1895 47 50 54 2
187.2399 1.0325 176.8276 174 174 166 3
187.4881 1.0620 180.2342 107 132 85 1
187.0060 1.0745 187.0861 107 132 85 1
187.7114 1.0898 193.8726 107 132 85 1
187.5378 1.0594 197.7919 107 132 85 1
187.5929 1.0235 201.2143 107 132 85 1
187.7981 0.9751 204.6367 107 132 85 1
188.1159 0.8950 208.7461 47 50 54 2
187.0911 0.8130 211.5003 47 50 54 2
188.1279 0.7108 215.3339 47 50 54 2
188.1252 0.5718 219.4022 174 174 166 3
187.6101 0.4685 222.1840 107 132 85 1
187.2925 0.3168 226.0743 107 132 85 1
187.8696 0.1472 230.0705 107 132 85 1
187.4518 -0.1241 236.5983 107 132 85 1
187.9232 -0.5358 247.0231 174 174 166 3
186.9893 -0.6257 250.0809 47 50 54 2
187.0358 -0.7492 254.2599 47 50 54 2
191.2222 0.4545 128.0000 47 50 54 2
190.6616 0.5366 131.4901 47 50 54 2
191.0263 0.6663 138.2791 107 132 85 1
190.8864 0.7827 145.9937 107 132 85 1
191.0881 0.8203 148.7999 107 132 85 1
190.6138 0.8673 152.8139 107 132 85 1
190.9923 0.9979 163.5625 107 132 85 1
190.8509 1.0326 166.8041 174 174 166 3
191.2811 1.0745 169.6874 47 50 54 2
190.8144 1.1069 173.8197 47 50 54 2
191.5136 1.1588 177.4003 47 50 54 2
190.5746 1.1554 180.3836 174 174 166 3
191.5149 1.1993 183.4305 107 132 85 1
190.7178 1.1849 190.8743 107 132 85 1
191.5650 1.0289 204.9942 174 174 166 3
190.6856 0.9170 209.0755 47 50 54 2
191.5914 0.8354 212.0418 47 50 54 2
191.4998 0.7166 215.5154 174 174 166 3
190.6950 0.5718 219.3776 107 132 85 1
191.3768 0.1211 229.9423 107 132 85 1
191.3338 -0.1425 235.9891 107 132 85 1
191.4239 -0.3141 240.0892 107 132 85 1
191.5813 -0.5646 246.7364 174 174 166 3
190.9881 -0.6903 250.8072 47 50 54 2
190.7749 -0.7773 253.9755 47 50 54 2
194.1411 0.4433 128.0000 47 50 54 2
193.9106 0.5287 131.6822 47 50 54 2
195.0978 0.6532 138.2525 107 132 85 1
193.9285 0.7751 145.2522 107 132 85 1
194.4654 1.1485 169.9762 174 174 166 3
194.1351 1.1782 172.8835 47 50 54 2
194.7417 1.2390 177.1330 47 50 54 2
193.9878 1.2469 180.2826 47 50 54 2
194.5893 1.2836 184.5887 107 132 85 1
195.0654 1.2972 187.9015 107 132 85 1
194.5166 1.2096 197.6477 107 132 85 1
194.9297 1.1408 201.7484 174 174 166 3
194.1439 1.0640 204.7146 47 50 54 2
194.7833 0.9752 208.0710 47 50 54 2
194.8459 0.8288 212.4793 47 50 54 2
194.6938 0.7122 215.5914 174 174 166 3
193.9362 0.5665 219.2652 107 132 85 1
195.0071 0.4290 222.3295 107 132 85 1
194.1262 0.2688 226.0891 107 132 85 1
194.1531 0.1219 229.3567 107 132 85 1
194.9269 -0.6000 247.1442 174 174 166 3
194.3603 -0.7183 251.1237 47 50 54 2
194.2239 -0.7944 254.0209 47 50 54 2
198.2879 0.4158 128.0000 47 50 54 2
198.3848 0.5038 131.8859 47 50 54 2
198.6069 0.5575 134.4691 174 174 166 3
198.0938 0.6426 138.4838 107 132 85 1
198.4230 1.1077 162.9661 107 132 85 1
198.0610 1.1587 166.1703 107 132 85 1
197.4079 1.2565 173.4290 174 174 166 3
198.1207 1.3150 177.2416 47 50 54 2
197.5627 1.3319 180.6849 47 50 54 2
198.4449 1.3631 183.7539 47 50 54 2
197.6442 1.3499 187.1097 107 132 85 1
197.4386 1.2490 197.5571 174 174 166 3
198.1844 1.1762 201.3519 47 50 54 2
197.8370 1.0635 205.4852 47 50 54 2
197.5213 0.9525 208.9496 47 50 54 2
197.5833 0.8629 211.4608 174 174 166 3
197.8278 0.7055 215.4516 107 132 85 1
198.4114 0.5321 219.4227 107 132 85 1
198.3651 0.3898 222.6223 107 132 85 1
198.3877 -0.0789 233.0695 107 132 85 1
197.6915 -0.5976 246.8278 174 174 166 3
198.2355 -0.7012 250.3694 47 50 54 2
198.4683 -0.7967 254.2145 47 50 54 2
201.6088 0.3859 128.0000 47 50 54 2
201.1379 0.4629 131.1206 47 50 54 2
201.3332 1.1397 162.6351 107 132 85 1
201.6751 1.2901 170.4941 107 132 85 1
201.8718 1.3339 173.2044 107 132 85 1
201.6727 1.3747 176.8604 47 50 54 2
201.8638 1.4042 180.2078 47 50 54 2
201.9389 1.4174 184.3214 47 50 54 2
201.2762 1.4001 187.9661 174 174 166 3
201.0486 1.3776 190.7120 107 132 85 1
201.2441 1.3347 194.2782 174 174 166 3
200.9467 1.2627 198.0978 47 50 54 2
201.2830 1.1668 202.0100 47 50 54 2
202.0198 1.0739 205.0278 47 50 54 2
201.6098 0.9759 207.9433 174 174 166 3
201.3152 0.8301 211.8369 107 132 85 1
201.1395 0.7026 214.9735 107 132 85 1
201.2168 0.5318 218.8933 107 132 85 1
201.0328 0.0443 229.7991 107 132 85 1
200.9222 -0.2605 237.1225 107 132 85 1
201.8553 -0.3679 239.9288 107 132 85 1
200.9531 -0.5073 243.9970 107 132 85 1
201.0156 -0.6166 247.5713 174 174 166 3
201.2752 -0.7084 251.0334 47 50 54 2
201.8957 -0.7675 253.7156 47 50 54 2
204.4563 0.3677 128.4800 47 50 54 2
204.5239 0.4296 131.1334 47 50 54 2
205.3494 0.6078 139.0291 107 132 85 1
205.4217 1.1243 160.0512 107 132 85 1
205.5246 1.2003 163.3330 107 132 85 1
204.8736 1.3239 169.9414 107 132 85 1
205.5658 1.4272 177.3447 174 174 166 3
204.5037 1.4360 180.2333 47 50 54 2
205.1752 1.4467 184.4756 47 50 54 2
205.5035 1.4283 188.1225 47 50 54 2
205.1433 1.4003 190.6896 174 174 166 3
205.2333 1.3327 194.8564 47 50 54 2
204.5996 1.2512 198.5649 47 50 54 2
205.5017 1.1740 201.2017 47 50 54 2
205.5468 1.0508 205.0130 174 174 166 3
204.5694 0.9538 207.9548 107 132 85 1
205.4071 0.6626 214.9230 107 132 85 1
204.4298 0.3378 222.5456 107 132 85 1
205.2902 0.1583 226.4687 174 174 166 3
204.9989 0.0382 229.3380 174 174 166 3
204.4871 -0.1104 233.0238 174 174 166 3
205.3789 -0.2484 236.5988 174 174 166 3
205.1822 -0.3843 240.5087 174 174 166 3
204.5047 -0.4997 244.0864 174 174 166 3
205.1995 -0.5810 247.1038 174 174 166 3
204.8580 -0.6793 250.9084 47 50 54 2
205.5508 -0.7518 254.5536 47 50 54 2
208.6748 0.3083 128.0000 47 50 54 2
208.6661 0.3893 131.2930 47 50 54 2
208.4098 0.4932 135.3650 107 132 85 1
208.2448 0.5895 139.1003 107 132 85 1
208.9586 1.1298 159.3128 107 132 85 1
208.7498 1.2078 162.5453 107 132 85 1
208.6936 1.3041 166.9917 107 132 85 1
208.6176 1.4617 180.8890 174 174 166 3
208.0841 1.4566 184.2941 47 50 54 2
208.0294 1.4349 187.5153 47 50 54 2
208.2109 1.3920 190.9118 47 50 54 2
208.7867 1.3090 195.0623 47 50 54 2
208.6001 1.2545 197.3713 47 50 54 2
208.4709 1.1470 201.1679 174 174 166 3
208.7517 0.8699 208.8572 107 132 85 1
208.7058 0.3112 222.2265 47 50 54 2
208.9036 0.1477 226.1268 47 50 54 2
208.2614 0.0174 229.4643 47 50 54 2
207.9912 -0.1048 232.6686 47 50 54 2
209.0194 -0.2414 236.5687 47 50 54 2
208.5771 -0.3465 239.7838 47 50 54 2
208.7563 -0.4387 242.9538 47 50 54 2
208.4901 -0.5602 247.4843 47 50 54 2
208.1326 -0.6376 250.6111 47 50 54 2
207.9803 -0.7087 253.8618 47 50 54 2
211.6083 0.2742 128.0000 47 50 54 2
211.5411 0.3780 132.0525 174 174 166 3
211.9424 0.4550 135.1142 107 132 85 1
211.6565 0.5640 139.0184 107 132 85 1
212.3312 1.0558 156.1007 107 132 85 1
212.5445 1.2366 163.0730 107 132 85 1
212.4931 1.4539 180.1127 174 174 166 3
212.2104 1.4413 184.2502 47 50 54 2
211.8353 1.4124 187.5779 47 50 54 2
212.0762 1.3474 191.5247 47 50 54 2
212.5295 1.2828 194.2540 47 50 54 2
211.5272 1.2116 197.6044 174 174 166 3
211.5057 1.1021 201.2439 107 132 85 1
211.6974 0.6949 212.1324 107 132 85 1
211.4328 0.5799 215.0505 107 132 85 1
212.4239 0.3980 219.2051 47 50 54 2
212.1245 0.2820 222.1859 47 50 54 2
212.6237 0.1113 226.5584 47 50 54 2
212.1740 -0.0126 230.0227 47 50 54 2
211.8601 -0.1258 233.3316 47 50 54 2
211.4588 -0.2342 236.6675 47 50 54 2
211.8948 -0.3256 239.8716 47 50 54 2
211.5292 -0.4164 243.1071 47 50 54 2
211.8470 -0.5140 247.2684 47 50 54 2
211.9767 -0.5938 251.0065 47 50 54 2
211.4769 -0.6720 254.5214 47 50 54 2
214.9792 0.2359 128.0000 47 50 54 2
215.3270 0.3119 131.0101 47 50 54 2
215.3864 0.9532 152.5255 107 132 85 1
215.7128 1.2429 163.3185 107 132 85 1
215.8557 1.4011 173.1741 174 174 166 3
216.0666 1.4204 176.5797 47 50 54 2
215.2993 1.4294 180.6220 47 50 54 2
215.5488 1.4008 184.5534 47 50 54 2
215.8991 1.3537 187.8150 47 50 54 2
215.4181 1.3021 191.1648 47 50 54 2
215.7993 1.2155 194.6045 47 50 54 2
215.2654 1.1171 198.5437 174 174 166 3
215.2910 1.0296 201.3059 107 132 85 1
216.0358 0.8724 205.4214 107 132 85 1
215.4155 0.4866 215.9964 174 174 166 3
215.9946 0.3633 219.0891 174 174 166 3
214.9980 0.2270 223.0510 174 174 166 3
215.9121 0.1243 225.8526 174 174 166 3
215.6505 0.0250 228.8757 174 174 166 3
214.9521 -0.1039 232.9639 174 174 166 3
215.0283 -0.2212 237.0674 174 174 166 3
215.7286 -0.3009 240.4212 174 174 166 3
215.2866 -0.3699 243.0709 174 174 166 3
215.8677 -0.4596 247.5134 174 174 166 3
215.2467 -0.5242 250.1457 47 50 54 2
215.4541 -0.5927 253.7746 47 50 54 2
219.5714 0.2001 128.4228 47 50 54 2
218.9537 0.2852 131.2761 47 50 54 2
219.3389 0.4027 135.3791 107 132 85 1
218.5801 0.5177 138.9500 107 132 85 1
219.6011 0.7326 145.8310 107 132 85 1
219.3555 0.8525 149.5567 107 132 85 1
218.8451 0.9310 152.0303 107 132 85 1
219.3328 1.0587 156.4547 107 132 85 1
219.5558 1.2855 166.5505 174 174 166 3
218.7252 1.3386 169.6633 174 174 166 3
218.7457 1.3731 173.2664 47 50 54 2
218.9825 1.3832 177.3794 47 50 54 2
218.8618 1.3785 180.1205 47 50 54 2
219.3148 1.3328 184.4197 47 50 54 2
218.7983 1.2982 187.6087 174 174 166 3
219.3341 1.2330 190.3808 47 50 54 2
219.3689 1.1286 194.7410 47 50 54 2
218.6998 1.0463 198.2763 47 50 54 2
218.5287 0.9507 201.4772 174 174 166 3
219.0049 0.5655 212.3341 47 50 54 2
219.2480 0.4450 215.6829 174 174 166 3
218.6538 0.2342 222.1487 107 132 85 1
218.7802 0.1170 225.8638 107 132 85 1
219.5675 0.0143 229.4532 107 132 85 1
218.6970 -0.1718 236.4732 107 132 85 1
218.8642 -0.2420 239.5637 107 132 85 1
219.3351 -0.3836 246.6045 174 174 166 3
219.3670 -0.4603 250.5203 47 50 54 2
218.9560 -0.5449 254.4854 47 50 54 2
222.7493 0.1606 128.0000 47 50 54 2
222.4043 0.2728 131.8045 47 50 54 2
222.6831 0.3526 134.4962 174 174 166 3
221.8947 0.6030 142.1721 107 132 85 1
223.0801 0.6894 144.9997 107 132 85 1
222.4673 0.9292 152.5247 174 174 166 3
222.2935 1.0176 155.5754 174 174 166 3
222.0724 1.1196 159.4805 174 174 166 3
222.6213 1.1982 163.4560 47 50 54 2
222.7736 1.2447 166.4075 47 50 54 2
222.5882 1.2918 170.2647 47 50 54 2
222.7039 1.3082 173.3638 47 50 54 2
222.6798 1.3112 176.7009 47 50 54 2
222.5127 1.2916 181.0599 174 174 166 3
222.6669 1.2597 183.6134 174 174 166 3
222.3461 1.2113 187.3402 107 132 85 1
222.1183 1.1426 191.0570 174 174 166 3
222.2600 1.0515 194.6235 47 50 54 2
222.7515 0.9448 197.9816 47 50 54 2
222.8546 0.8305 201.7376 47 50 54 2
222.5533 0.6397 208.0534 47 50 54 2
222.9871 0.5101 211.8922 47 50 54 2
223.0686 0.4070 215.2306 174 174 166 3
222.0013 -0.2032 239.7395 107 132 85 1
221.9245 -0.2897 244.0609 107 132 85 1
222.6474 -0.3365 247.1517 174 174 166 3
222.3831 -0.4160 251.0543 47 50 54 2
221.9902 -0.4781 253.8699 47 50 54 2
225.8170 0.1424 128.1486 47 50 54 2
226.0024 0.2375 131.4245 47 50 54 2
225.8462 0.3626 135.4199 174 174 166 3
226.5763 0.4660 138.7521 174 174 166 3
225.5995 0.5663 141.6545 174 174 166 3
225.5613 0.6869 145.3556 174 174 166 3
225.8707 0.7805 148.3859 174 174 166 3
226.5462 0.8840 152.0730 47 50 54 2
226.1238 1.0011 156.3319 47 50 54 2
226.1227 1.0705 159.3713 47 50 54 2
225.5500 1.1413 162.5973 47 50 54 2
226.4337 1.1811 166.5697 47 50 54 2
225.6396 1.2246 169.4713 47 50 54 2
226.2605 1.2239 173.1494 174 174 166 3
226.6102 1.2050 176.9890 174 174 166 3
225.4877 1.2097 180.7884 107 132 85 1
225.3991 1.1789 183.5519 107 132 85 1
226.4105 1.0756 187.6917 107 132 85 1
225.6625 0.9613 193.9751 174 174 166 3
225.8836 0.8625 197.5012 47 50 54 2
225.4970 0.7585 201.6669 47 50 54 2
226.5592 0.6332 205.0766 174 174 166 3
225.6150 0.5571 208.5710 47 50 54 2
226.1416 0.4617 211.6246 47 50 54 2
226.3583 0.3600 215.3686 174 174 166 3
226.5119 0.0411 229.7898 107 132 85 1
225.9280 -0.0297 233.3013 107 132 85 1
225.9529 -0.2782 247.1681 174 174 166 3
226.5001 -0.3334 250.6309 47 50 54 2
225.7370 -0.4020 253.4349 47 50 54 2
229.0820 0.1218 128.0811 47 50 54 2
229.4033 0.2210 131.4815 47 50 54 2
230.0118 0.3171 134.6741 47 50 54 2
229.5939 0.4398 138.4609 47 50 54 2
229.5680 0.5492 141.8776 47 50 54 2
229.0693 0.6752 145.7858 47 50 54 2
229.6485 0.7619 148.8878 47 50 54 2
229.7280 0.8614 152.5982 47 50 54 2
229.6027 0.9402 155.8169 47 50 54 2
229.1086 1.0325 160.0024 47 50 54 2
230.1069 1.0580 163.1551 47 50 54 2
229.5780 1.1062 166.6173 174 174 166 3
229.3016 1.1319 169.8828 174 174 166 3
229.5980 0.9623 187.5210 107 132 85 1
230.1126 0.7937 194.4936 174 174 166 3
229.9922 0.7080 198.2996 107 132 85 1
229.4344 0.5678 204.7174 174 174 166 3
229.8497 0.4597 208.8469 47 50 54 2
229.0838 0.3878 212.6128 47 50 54 2
229.5341 0.3269 215.1184 174 174 166 3
229.0281 0.1794 222.7771 107 132 85 1
229.2899 0.1168 226.3428 107 132 85 1
229.0416 -0.0020 233.5709 107 132 85 1
229.1382 -0.0531 236.9082 107 132 85 1
229.6210 -0.2209 247.5201 174 174 166 3
228.9231 -0.2885 250.5093 47 50 54 2
230.1133 -0.3344 253.8249 47 50 54 2
233.1157 0.1038 128.0000 47 50 54 2
233.2572 0.2167 131.8697 47 50 54 2
232.6537 0.3021 134.5935 47 50 54 2
232.4270 0.4115 138.0839 47 50 54 2
232.8383 0.5294 142.0211 47 50 54 2
233.3984 0.6193 145.2872 47 50 54 2
233.4361 0.7120 148.7507 47 50 54 2
232.4151 0.8274 152.8705 47 50 54 2
232.4643 0.9010 156.4658 174 174 166 3
232.3873 0.9546 159.5693 174 174 166 3
232.8352 0.9849 163.0017 107 132 85 1
232.5487 1.0163 165.9855 107 132 85 1
232.8593 1.0091 173.2440 107 132 85 1
232.7098 0.9573 179.9529 107 132 85 1
233.2503 0.7533 190.7842 107 132 85 1
232.8779 0.6878 194.6807 107 132 85 1
233.2542 0.5286 201.6779 107 132 85 1
232.8447 0.4844 204.4239 174 174 166 3
233.1783 0.4060 208.0550 47 50 54 2
233.2738 0.3341 212.0316 47 50 54 2
232.4894 0.2909 215.2388 174 174 166 3
233.2277 0.1759 222.8132 107 132 85 1
232.3866 0.0924 229.0665 107 132 85 1
233.1718 0.0499 232.9550 107 132 85 1
233.3416 -0.1560 247.2655 174 174 166 3
233.5138 -0.2172 250.7210 47 50 54 2
232.9978 -0.2856 253.7222 47 50 54 2
236.9182 0.0957 128.0000 47 50 54 2
236.4999 0.1830 131.0741 47 50 54 2
236.3483 0.3130 135.5388 174 174 166 3
235.8991 0.4159 138.9842 174 174 166 3
236.0883 0.5150 142.5606 174 174 166 3
235.9099 0.5830 145.0331 174 174 166 3
236.3882 0.6753 149.1455 174 174 166 3
236.3215 0.8895 166.9634 107 132 85 1
235.9525 0.8987 170.5396 107 132 85 1
235.9505 0.7011 187.5194 107 132 85 1
236.9976 0.6038 190.5486 107 132 85 1
236.7639 0.4901 197.6530 107 132 85 1
236.3262 0.3895 204.6871 174 174 166 3
235.9131 0.3474 208.1565 47 50 54 2
236.7764 0.2873 211.5973 47 50 54 2
236.1350 0.2483 215.6940 174 174 166 3
236.5219 0.1530 225.3850 107 132 85 1
236.2405 0.0779 233.1444 107 132 85 1
236.3549 -0.0489 243.4066 107 132 85 1
237.0472 -0.1011 247.2211 174 174 166 3
236.5338 -0.1629 250.2308 47 50 54 2
236.2959 -0.2408 253.9499 47 50 54 2
239.8399 0.0953 128.0916 47 50 54 2
240.0068 0.1754 131.1244 47 50 54 2
239.4171 0.2766 134.8037 107 132 85 1
240.1932 0.3825 139.0660 107 132 85 1
240.1028 0.4489 141.7496 107 132 85 1
240.4331 0.6529 152.8797 107 132 85 1
240.5753 0.6857 156.1782 107 132 85 1
239.7272 0.7395 159.5391 107 132 85 1
240.4234 0.6794 173.8001 174 174 166 3
240.2585 0.6534 177.0324 107 132 85 1
240.0934 0.6202 180.3518 107 132 85 1
240.2132 0.5120 187.5791 107 132 85 1
239.6919 0.4889 190.6556 107 132 85 1
240.1169 0.4177 194.4088 107 132 85 1
240.4181 0.3605 197.9741 107 132 85 1
240.6271 0.3142 201.4946 107 132 85 1
240.0100 0.2964 204.8737 174 174 166 3
240.2427 0.2608 208.3555 47 50 54 2
240.5043 0.2337 211.5788 47 50 54 2
240.4894 0.2122 215.3688 174 174 166 3
240.3778 0.1776 222.6087 107 132 85 1
239.9366 0.1391 229.2647 107 132 85 1
239.4845 -0.0171 243.9351 107 132 85 1
239.7341 -0.0545 246.5090 174 174 166 3
239.9434 -0.1326 251.0255 47 50 54 2
239.4165 -0.1905 253.6018 47 50 54 2
243.1249 0.0965 128.1739 47 50 54 2
243.0784 0.1672 131.0958 47 50 54 2
243.6223 0.2670 135.4271 107 132 85 1
243.4933 0.3267 138.0498 107 132 85 1
243.7707 0.4660 145.5551 107 132 85 1
243.2766 0.5331 149.4062 107 132 85 1
244.0067 0.5409 151.9129 107 132 85 1
243.2699 0.5928 155.5505 107 132 85 1
243.5614 0.5974 159.2831 107 132 85 1
242.9790 0.6216 163.3422 174 174 166 3
244.0243 0.5607 166.9044 47 50 54 2
243.7186 0.5498 170.4704 47 50 54 2
243.0621 0.5538 173.5548 174 174 166 3
243.7909 0.3984 183.7195 107 132 85 1
243.9884 0.3512 186.8737 107 132 85 1
243.8453 0.3129 190.8325 107 132 85 1
243.1910 0.2410 201.6511 107 132 85 1
243.3496 0.2207 204.4533 174 174 166 3
243.5075 0.2000 208.8420 47 50 54 2
244.1285 0.1843 212.0546 47 50 54 2
243.3848 0.1881 215.0081 174 174 166 3
243.7166 0.1553 229.7614 107 132 85 1
243.6241 0.1362 233.1755 107 132 85 1
243.3954 0.1048 236.9989 107 132 85 1
242.9217 0.0695 240.0512 107 132 85 1
242.9633 0.0216 243.8232 107 132 85 1
243.5337 -0.0197 246.9289 174 174 166 3
243.0168 -0.0897 250.6724 47 50 54 2
243.1348 -0.1621 254.5077 47 50 54 2
246.5703 0.0941 128.0594 47 50 54 2
247.4423 0.1675 131.7444 174 174 166 3
246.7446 0.2445 135.5137 174 174 166 3
247.1480 0.2864 138.0827 174 174 166 3
247.4960 0.3388 141.8545 174 174 166 3
246.8314 0.3999 145.6205 174 174 166 3
247.6236 0.4114 149.2184 174 174 166 3
247.3549 0.4387 152.8434 174 174 166 3
247.4549 0.4408 155.4846 174 174 166 3
246.9021 0.4614 159.0294 174 174 166 3
247.5383 0.4194 162.7122 174 174 166 3
246.7290 0.4317 166.7537 47 50 54 2
247.4928 0.3647 170.0695 47 50 54 2
247.4774 0.3373 172.8778 174 174 166 3
246.4653 0.3516 176.3851 174 174 166 3
246.6202 0.2981 180.5006 174 174 166 3
246.5110 0.2619 184.3912 174 174 166 3
246.8633 0.2198 187.0843 174 174 166 3
246.5662 0.1981 191.2638 174 174 166 3
247.5265 0.1441 194.1962 174 174 166 3
246.4514 0.1625 198.4719 174 174 166 3
247.3643 0.1299 202.0030 174 174 166 3
246.4042 0.1511 204.5933 174 174 166 3
247.4615 0.1331 207.9726 47 50 54 2
246.8290 0.1505 211.7632 47 50 54 2
247.4694 0.1529 215.2503 174 174 166 3
247.5851 0.1644 219.6272 174 174 166 3
247.2165 0.1711 222.7222 174 174 166 3
247.4442 0.1724 225.5829 174 174 166 3
247.3370 0.1679 229.2814 174 174 166 3
246.5736 0.1540 232.5632 174 174 166 3
246.5118 0.1257 236.8730 174 174 166 3
247.4791 0.1015 240.0702 174 174 166 3
247.5614 0.0555 244.0501 174 174 166 3
247.1798 0.0139 246.8250 174 174 166 3
247.0892 -0.0521 250.8847 47 50 54 2
246.3907 -0.1144 253.9908 47 50 54 2
250.3207 0.0928 128.0000 47 50 54 2
250.2809 0.1462 131.2268 47 50 54 2
250.6491 0.1958 134.7172 47 50 54 2
250.8271 0.2458 138.9815 47 50 54 2
251.0935 0.2719 142.4322 47 50 54 2
250.1483 0.3154 145.3905 47 50 54 2
250.9713 0.3059 149.0263 47 50 54 2
250.8634 0.3112 152.1685 47 50 54 2
250.1905 0.3305 155.9310 47 50 54 2
250.2120 0.3141 159.4433 47 50 54 2
249.9726 0.2991 163.3124 47 50 54 2
249.9254 0.2690 167.0642 47 50 54 2
249.8827 0.2436 169.8792 47 50 54 2
250.2946 0.1807 173.9075 47 50 54 2
250.7044 0.1247 177.4077 47 50 54 2
250.7391 0.0969 180.3008 47 50 54 2
250.6300 0.0694 184.6282 47 50 54 2
250.5287 0.0590 187.1935 47 50 54 2
250.8711 0.0305 191.3071 47 50 54 2
249.9503 0.0591 194.0400 47 50 54 2
250.5417 0.0415 198.4250 47 50 54 2
250.0153 0.0616 200.9834 47 50 54 2
250.1704 0.0721 204.8506 47 50 54 2
250.1453 0.0903 208.3855 47 50 54 2
250.0264 0.1144 212.3706 47 50 54 2
250.4886 0.1252 215.0416 47 50 54 2
250.2811 0.1453 218.4242 47 50 54 2
250.7028 0.1612 222.6729 47 50 54 2
250.6462 0.1695 226.1880 47 50 54 2
250.4970 0.1693 229.9277 47 50 54 2
250.3164 0.1621 232.7097 47 50 54 2
250.2188 0.1393 236.9498 47 50 54 2
250.0886 0.1143 239.9520 47 50 54 2
250.3303 0.0814 243.1840 47 50 54 2
250.6199 0.0275 247.5334 47 50 54 2
250.2618 -0.0123 250.1071 47 50 54 2
250.1966 -0.0772 254.2038 47 50 54 2
254.1774 0.0960 128.5407 47 50 54 2
253.5860 0.1302 131.3385 47 50 54 2
253.7120 0.1634 134.7399 47 50 54 2
253.9164 0.1846 137.8837 47 50 54 2
254.2676 0.1958 142.0537 47 50 54 2
253.9957 0.2075 145.0970 47 50 54 2
253.5697 0.2182 148.8111 47 50 54 2
253.9613 0.1918 152.1488 47 50 54 2
253.6507 0.1807 156.0781 47 50 54 2
254.3093 0.1217 159.4809 47 50 54 2
253.9044 0.1071 162.9770 47 50 54 2
254.0996 0.0535 167.1200 47 50 54 2
253.6257 0.0480 169.9781 47 50 54 2
253.4895 0.0194 173.5307 47 50 54 2
253.3920 -0.0094 177.3184 47 50 54 2
253.8678 -0.0527 180.1176 47 50 54 2
253.9580 -0.0736 183.3712 47 50 54 2
253.7903 -0.0767 187.0200 47 50 54 2
253.4249 -0.0640 190.9027 47 50 54 2
253.6735 -0.0630 194.8699 47 50 54 2
253.4022 -0.0407 197.9479 47 50 54 2
254.1237 -0.0362 201.3377 47 50 54 2
254.0643 -0.0091 204.3798 47 50 54 2
254.1187 0.0235 207.9700 47 50 54 2
254.3743 0.0647 212.5752 47 50 54 2
253.5737 0.1000 215.5506 47 50 54 2
254.5971 0.1212 219.3609 47 50 54 2
254.3927 0.1457 223.1147 47 50 54 2
254.4564 0.1578 226.3451 47 50 54 2
254.1719 0.1634 229.5185 47 50 54 2
254.0611 0.1585 233.3274 47 50 54 2
253.5728 0.1424 237.0508 47 50 54 2
254.0039 0.1240 239.7459 47 50 54 2
254.1346 0.0877 243.8142 47 50 54 2
253.3942 0.0430 247.5528 47 50 54 2
254.4367 0.0118 250.6010 47 50 54 2
253.6682 -0.0362 253.8378 47 50 54 2
196.8420 81.3907 139.8996 112 116 122 5
196.8420 81.3907 143.2987 112 116 122 5
196.8420 81.3907 147.0341 112 116 122 5
197.1820 81.3907 150.7944 112 116 122 5
200.3347 81.3907 139.5000 112 116 122 5
200.3678 81.3907 143.7825 112 116 122 5
200.4997 81.3907 146.9618 112 116 122 5
201.1632 81.3907 152.1670 112 116 122 5
205.4245 81.3907 140.1584 112 116 122 5
205.4192 81.3907 142.7932 112 116 122 5
204.4219 81.3907 148.0694 112 116 122 5
204.8980 81.3907 151.0814 112 116 122 5
208.9363 81.3907 140.1385 112 116 122 5
208.6137 81.3907 142.9160 112 116 122 5
209.5150 81.3907 148.0200 112 116 122 5
209.2205 81.3907 151.3120 112 116 122 5
212.8553 81.3907 139.9296 112 116 122 5
212.8553 81.3907 143.7824 112 116 122 5
212.3375 81.3907 148.1926 112 116 122 5
212.2740 81.3907 150.9831 112 116 122 5
196.8420 0.7977 139.5000 176 164 148 4
197.2118 4.1715 139.5000 176 164 148 4
196.8422 9.0483 139.5000 176 164 148 4
196.8420 12.9295 139.5000 176 164 148 4
196.8420 16.6210 139.5000 176 164 148 4
196.8420 20.3779 139.5000 176 164 148 4
196.8420 25.3646 139.5000 176 164 148 4
196.8420 28.7383 139.5000 176 164 148 4
196.8886 32.9191 139.5000 176 164 148 4
196.8420 37.0405 139.5000 176 164 148 4
196.8420 40.1654 139.5000 176 164 148 4
196.8420 45.1221 139.5000 176 164 148 4
196.8420 48.7280 139.5000 176 164 148 4
196.8420 52.9985 139.5000 176 164 148 4
196.8420 56.3204 139.5000 176 164 148 4
197.0827 61.0074 139.5000 176 164 148 4
197.1028 64.3046 139.5000 176 164 148 4
196.8420 68.5059 139.5000 176 164 148 4
197.3442 72.2045 139.5000 176 164 148 4
197.5033 77.0096 139.5000 176 164 148 4
196.8420 81.2391 139.5000 176 164 148 4
201.2523 0.7977 139.5000 176 164 148 4
200.3872 4.7421 139.5000 176 164 148 4
200.9215 8.9921 139.5000 176 164 148 4
201.5248 13.1528 139.5000 176 164 148 4
200.4403 16.5348 139.5000 176 164 148 4
200.4353 21.2558 139.5000 176 164 148 4
201.0398 24.7668 139.5000 176 164 148 4
201.1415 28.3221 139.5000 176 164 148 4
200.9807 33.3537 139.5000 176 164 148 4
200.7744 36.5016 139.5000 176 164 148 4
200.6783 41.2089 139.5000 176 164 148 4
200.8217 45.2377 139.5000 176 164 148 4
201.5474 48.7414 139.5000 176 164 148 4
200.4817 53.2216 139.5000 176 164 148 4
201.0001 56.5598 139.5000 176 164 148 4
200.5481 60.2024 139.5000 176 164 148 4
200.6541 65.1550 139.5000 176 164 148 4
201.2058 68.6615 139.5000 176 164 148 4
201.3742 72.9831 139.5000 176 164 148 4
201.5056 76.6662 139.5000 176 164 148 4
201.0732 80.5853 139.5000 176 164 148 4
204.6283 0.7977 139.5000 176 164 148 4
205.5604 4.2347 139.5000 176 164 148 4
205.4123 8.2218 139.5000 176 164 148 4
204.9154 13.3875 139.5000 176 164 148 4
204.4197 16.0991 139.5000 176 164 148 4
205.3017 20.3103 139.5000 176 164 148 4
205.0802 24.4667 139.5000 176 164 148 4
205.1022 28.8437 139.5000 176 164 148 4
204.3534 32.0839 139.5000 176 164 148 4
205.3762 37.4527 139.5000 176 164 148 4
205.2243 40.1131 139.5000 176 164 148 4
204.5536 44.7722 139.5000 176 164 148 4
205.5259 48.5228 139.5000 176 164 148 4
204.1603 53.3088 139.5000 176 164 148 4
204.3054 56.1040 139.5000 176 164 148 4
205.0394 61.2135 139.5000 176 164 148 4
204.4296 64.9326 139.5000 176 164 148 4
204.3552 68.8285 139.5000 176 164 148 4
205.0591 72.3139 139.5000 176 164 148 4
204.6234 76.3936 139.5000 176 164 148 4
204.8626 80.8581 139.5000 176 164 148 4
208.9052 0.7977 139.5000 176 164 148 4
209.0907 4.2112 139.5000 176 164 148 4
208.4397 8.8656 139.5000 176 164 148 4
208.2965 12.2719 139.5000 176 164 148 4
208.4128 16.5870 139.5000 176 164 148 4
208.7599 21.3488 139.5000 176 164 148 4
208.8524 24.5185 139.5000 176 164 148 4
208.4851 28.2814 139.5000 176 164 148 4
209.0822 32.4325 139.5000 176 164 148 4
208.2458 36.2467 139.5000 176 164 148 4
208.4088 41.2917 139.5000 176 164 148 4
208.4855 44.4013 139.5000 176 164 148 4
209.4602 48.8090 139.5000 176 164 148 4
209.0077 53.5039 139.5000 176 164 148 4
208.2325 57.4082 139.5000 176 164 148 4
208.3676 60.3474 139.5000 176 164 148 4
208.7138 64.1473 139.5000 176 164 148 4
209.0886 68.7470 139.5000 176 164 148 4
208.1420 72.1063 139.5000 176 164 148 4
208.1584 77.3157 139.5000 176 164 148 4
209.2898 81.3903 139.5000 176 164 148 4
212.8507 0.7977 139.5000 176 164 148 4
212.4606 4.6875 139.5000 176 164 148 4
212.5783 8.9066 139.5000 176 164 148 4
212.7415 12.3164 139.5000 176 164 148 4
212.8553 16.0973 139.5000 176 164 148 4
212.4661 20.3764 139.5000 176 164 148 4
212.8553 24.3925 139.5000 176 164 148 4
212.8553 29.4409 139.5000 176 164 148 4
212.3918 32.4844 139.5000 176 164 148 4
212.8553 37.0088 139.5000 176 164 148 4
212.8553 41.0338 139.5000 176 164 148 4
212.8553 45.0888 139.5000 176 164 148 4
212.8553 49.0954 139.5000 176 164 148 4
212.8553 52.4139 139.5000 176 164 148 4
212.8553 56.3302 139.5000 176 164 148 4
212.6943 61.1656 139.5000 176 164 148 4
212.8553 64.4281 139.5000 176 164 148 4
212.8553 68.3993 139.5000 176 164 148 4
212.6735 72.6638 139.5000 176 164 148 4
212.4014 76.1110 139.5000 176 164 148 4
212.6406 80.5738 139.5000 176 164 148 4
197.0964 0.7977 154.1253 176 164 148 4
197.2506 5.2237 154.1253 176 164 148 4
197.2008 9.0704 154.1253 176 164 148 4
196.8420 12.5360 154.1253 176 164 148 4
196.8420 16.6621 154.1253 176 164 148 4
196.8420 21.5080 154.1253 176 164 148 4
197.0304 24.4931 154.1253 176 164 148 4
197.5455 29.1206 154.1253 176 164 148 4
197.3932 33.1072 154.1253 176 164 148 4
197.3196 37.2875 154.1253 176 164 148 4
196.8420 40.3756 154.1253 176 164 148 4
196.8420 44.4015 154.1253 176 164 148 4
197.3075 48.8059 154.1253 176 164 148 4
196.8923 53.3995 154.1253 176 164 148 4
196.8420 56.9885 154.1253 176 164 148 4
196.8420 61.0656 154.1253 176 164 148 4
196.8420 64.6628 154.1253 176 164 148 4
196.8550 69.4001 154.1253 176 164 148 4
197.1800 73.2904 154.1253 176 164 148 4
196.8420 77.2586 154.1253 176 164 148 4
196.8420 81.1633 154.1253 176 164 148 4
201.4439 0.8810 154.1253 176 164 148 4
201.0208 5.4164 154.1253 176 164 148 4
200.5220 8.1204 154.1253 176 164 148 4
200.5490 13.2856 154.1253 176 164 148 4
201.0681 16.1842 154.1253 176 164 148 4
200.9048 21.1558 154.1253 176 164 148 4
200.9673 24.8937 154.1253 176 164 148 4
201.0154 29.4713 154.1253 176 164 148 4
200.3861 32.8770 154.1253 176 164 148 4
200.3075 36.4068 154.1253 176 164 148 4
200.8139 40.1373 154.1253 176 164 148 4
200.3583 45.3837 154.1253 176 164 148 4
200.1377 48.7571 154.1253 176 164 148 4
200.7387 52.7271 154.1253 176 164 148 4
201.3337 56.4906 154.1253 176 164 148 4
200.7483 61.3087 154.1253 176 164 148 4
201.5326 64.9184 154.1253 176 164 148 4
201.4771 68.4809 154.1253 176 164 148 4
200.4399 73.0458 154.1253 176 164 148 4
200.6673 76.8497 154.1253 176 164 148 4
201.2444 80.9673 154.1253 176 164 148 4
205.2134 1.3849 154.1253 176 164 148 4
204.4471 4.3764 154.1253 176 164 148 4
204.2836 9.0671 154.1253 176 164 148 4
205.2181 13.0800 154.1253 176 164 148 4
204.8297 16.9213 154.1253 176 164 148 4
204.3033 21.2129 154.1253 176 164 148 4
204.3035 24.3420 154.1253 176 164 148 4
205.3571 28.7501 154.1253 176 164 148 4
204.5156 32.3749 154.1253 176 164 148 4
205.1454 36.6426 154.1253 176 164 148 4
204.5329 40.1023 154.1253 176 164 148 4
204.9449 45.2830 154.1253 176 164 148 4
204.8401 48.5155 154.1253 176 164 148 4
205.4477 52.1686 154.1253 176 164 148 4
205.1149 57.3792 154.1253 176 164 148 4
204.4736 61.4684 154.1253 176 164 148 4
204.4372 65.2541 154.1253 176 164 148 4
205.1366 68.9571 154.1253 176 164 148 4
205.0840 72.2012 154.1253 176 164 148 4
205.3050 76.3266 154.1253 176 164 148 4
204.4677 81.0847 154.1253 176 164 148 4
209.4200 0.7977 154.1253 176 164 148 4
209.2103 5.5085 154.1253 176 164 148 4
209.1273 9.1794 154.1253 176 164 148 4
209.1621 12.5385 154.1253 176 164 148 4
209.3311 17.3140 154.1253 176 164 148 4
208.4294 20.4204 154.1253 176 164 148 4
208.2625 24.6378 154.1253 176 164 148 4
208.7154 28.9576 154.1253 176 164 148 4
209.2881 32.5166 154.1253 176 164 148 4
208.2963 37.0439 154.1253 176 164 148 4
208.3177 40.6960 154.1253 176 164 148 4
209.1857 45.3323 154.1253 176 164 148 4
209.4388 48.8592 154.1253 176 164 148 4
208.9136 52.3626 154.1253 176 164 148 4
208.2505 56.2448 154.1253 176 164 148 4
208.4501 60.9136 154.1253 176 164 148 4
208.8748 64.4745 154.1253 176 164 148 4
208.4753 68.6143 154.1253 176 164 148 4
209.0805 72.8131 154.1253 176 164 148 4
209.2105 77.4399 154.1253 176 164 148 4
208.6668 80.6641 154.1253 176 164 148 4
212.8553 0.7977 154.1253 176 164 148 4
212.3335 4.8366 154.1253 176 164 148 4
212.6818 9.3239 154.1253 176 164 148 4
212.8553 13.0298 154.1253 176 164 148 4
212.7460 16.9851 154.1253 176 164 148 4
212.3717 20.2533 154.1253 176 164 148 4
212.4846 25.2134 154.1253 176 164 148 4
212.8553 28.9898 154.1253 176 164 148 4
212.8553 32.5917 154.1253 176 164 148 4
212.4162 36.2273 154.1253 176 164 148 4
212.8553 40.6855 154.1253 176 164 148 4
212.2631 44.3606 154.1253 176 164 148 4
212.4538 49.4653 154.1253 176 164 148 4
212.6601 53.1162 154.1253 176 164 148 4
212.8553 56.4147 154.1253 176 164 148 4
212.2629 61.1704 154.1253 176 164 148 4
212.8553 64.3438 154.1253 176 164 148 4
212.6346 68.8507 154.1253 176 164 148 4
212.8553 72.5697 154.1253 176 164 148 4
212.4712 76.1424 154.1253 176 164 148 4
212.8553 80.4461 154.1253 176 164 148 4
196.8420 0.7977 139.5000 176 164 148 4
196.8420 5.1478 139.7242 176 164 148 4
196.8420 8.7293 139.9918 176 164 148 4
196.8420 13.1824 139.5623 176 164 148 4
196.8420 17.2247 139.5000 176 164 148 4
196.8420 21.1021 139.5000 176 164 148 4
196.8420 25.1530 139.5000 176 164 148 4
196.8420 29.1691 139.6256 176 164 148 4
196.8420 32.8737 139.9922 176 164 148 4
196.8420 37.1427 139.5000 176 164 148 4
196.8420 40.7229 139.5010 176 164 148 4
196.8420 44.7695 139.6579 176 164 148 4
196.8420 49.4528 139.5125 176 164 148 4
196.8420 53.2391 139.5000 176 164 148 4
196.8420 57.4330 140.2061 176 164 148 4
196.8420 60.5445 139.5000 176 164 148 4
196.8420 64.7622 139.7525 176 164 148 4
196.8420 68.1514 139.8357 176 164 148 4
196.8420 73.3835 139.5000 176 164 148 4
196.8420 77.3801 139.5000 176 164 148 4
196.8420 81.2645 139.9459 176 164 148 4
196.8420 0.8312 143.3913 176 164 148 4
196.8420 4.9283 143.9488 176 164 148 4
196.8420 8.6176 143.5404 176 164 148 4
196.8420 13.4732 144.0252 176 164 148 4
196.8420 16.5764 143.5309 176 164 148 4
196.8420 20.0809 144.0697 176 164 148 4
196.8420 24.3652 143.3899 176 164 148 4
196.8420 29.1747 144.0202 176 164 148 4
196.8420 32.1351 143.8007 176 164 148 4
196.8420 36.6349 144.1869 176 164 148 4
196.8420 41.1249 142.8432 176 164 148 4
196.8420 44.2016 143.7742 176 164 148 4
196.8420 48.9677 143.7616 176 164 148 4
196.8420 52.5787 143.5051 176 164 148 4
196.8420 56.4472 143.6692 176 164 148 4
196.8420 60.2696 143.7364 176 164 148 4
196.8420 65.4124 143.7865 176 164 148 4
196.8420 68.7149 142.9285 176 164 148 4
196.8420 72.9966 143.5938 176 164 148 4
196.8420 76.9113 143.9903 176 164 148 4
196.8420 80.2078 143.6796 176 164 148 4
196.8420 0.7977 147.1226 176 164 148 4
196.8420 5.3125 148.0930 176 164 148 4
196.8420 8.6375 147.6547 176 164 148 4
196.8420 13.2620 147.0070 176 164 148 4
196.8420 16.9333 148.1542 176 164 148 4
196.8420 20.5389 147.4256 176 164 148 4
196.8420 24.7092 147.6382 176 164 148 4
196.8420 28.5139 147.2700 176 164 148 4
196.8420 32.9112 148.1332 176 164 148 4
196.8420 37.0674 147.6022 176 164 148 4
196.8420 41.4148 147.5454 176 164 148 4
196.8420 45.1494 147.5730 176 164 148 4
196.8420 49.1720 148.1489 176 164 148 4
196.8420 52.4995 147.6825 176 164 148 4
196.8420 56.9076 147.3835 176 164 148 4
196.8420 61.2802 146.8517 176 164 148 4
196.8420 64.1676 147.9684 176 164 148 4
196.8420 68.5138 146.8307 176 164 148 4
196.8420 73.0793 147.8462 176 164 148 4
196.8420 76.0852 147.8699 176 164 148 4
196.8420 80.5013 147.6895 176 164 148 4
196.8420 1.1724 151.7928 176 164 148 4
196.8420 4.7604 151.0816 176 164 148 4
196.8420 8.1901 151.3687 176 164 148 4
196.8420 13.0527 150.8798 176 164 148 4
196.8420 16.5264 151.5204 176 164 148 4
196.8420 21.4405 152.2010 176 164 148 4
196.8420 24.6094 150.7869 176 164 148 4
196.8420 28.8798 150.8222 176 164 148 4
196.8420 32.6654 151.2758 176 164 148 4
196.8420 36.6114 151.4832 176 164 148 4
196.8420 40.8216 151.9720 176 164 148 4
196.8420 45.0933 151.7987 176 164 148 4
196.8420 49.4064 151.4170 176 164 148 4
196.8420 52.7170 151.7335 176 164 148 4
196.8420 57.1003 151.7035 176 164 148 4
196.8420 60.3756 151.8942 176 164 148 4
196.8420 64.0896 150.7988 176 164 148 4
196.8420 68.7841 151.1948 176 164 148 4
196.8420 72.1600 151.6270 176 164 148 4
196.8420 76.6250 150.9194 176 164 148 4
196.8420 80.3270 151.7953 176 164 148 4
212.8553 0.7977 139.5609 176 164 148 4
212.8553 4.2952 139.5000 176 164 148 4
212.8553 9.1849 139.9043 176 164 148 4
212.8553 12.0791 139.5000 176 164 148 4
212.8553 17.1343 139.7646 176 164 148 4
212.8553 20.7354 139.8757 176 164 148 4
212.8553 24.5012 139.5000 176 164 148 4
212.8553 28.6702 139.7911 176 164 148 4
212.8553 33.5119 139.5000 176 164 148 4
212.8553 37.4981 140.0836 176 164 148 4
212.8553 40.8119 139.5000 176 164 148 4
212.8553 44.4269 139.5000 176 164 148 4
212.8553 48.3126 139.7726 176 164 148 4
212.8553 53.5117 139.8628 176 164 148 4
212.8553 57.1802 140.1464 176 164 148 4
212.8553 61.0963 140.0940 176 164 148 4
212.8553 64.5044 139.8773 176 164 148 4
212.8553 68.9724 140.0529 176 164 148 4
212.8553 72.1305 139.5000 176 164 148 4
212.8553 77.2074 140.1523 176 164 148 4
212.8553 81.2088 139.5000 176 164 148 4
212.8553 0.7977 143.6038 176 164 148 4
212.8553 4.4984 143.8466 176 164 148 4
212.8553 8.0949 143.9989 176 164 148 4
212.8553 13.4193 142.7863 176 164 148 4
212.8553 16.2722 142.9982 176 164 148 4
212.8553 21.0086 143.5321 176 164 148 4
212.8553 24.8062 144.1884 176 164 148 4
212.8553 28.3677 143.5399 176 164 148 4
212.8553 32.1299 142.8669 176 164 148 4
212.8553 37.3394 142.8642 176 164 148 4
212.8553 40.1639 144.0709 176 164 148 4
212.8553 44.9220 142.9592 176 164 148 4
212.8553 48.2565 144.0387 176 164 148 4
212.8553 53.4909 142.9533 176 164 148 4
212.8553 56.8165 143.4797 176 164 148 4
212.8553 61.2803 142.8937 176 164 148 4
212.8553 64.3450 143.4904 176 164 148 4
212.8553 68.9074 143.4994 176 164 148 4
212.8553 72.2124 143.6368 176 164 148 4
212.8553 77.4917 143.1060 176 164 148 4
212.8553 80.1033 143.4708 176 164 148 4
212.8553 0.7977 147.1429 176 164 148 4
212.8553 4.2073 148.1966 176 164 148 4
212.8553 8.1912 147.8766 176 164 148 4
212.8553 12.4759 146.9758 176 164 148 4
212.8553 16.3951 147.8486 176 164 148 4
212.8553 20.1078 148.1433 176 164 148 4
212.8553 24.9157 147.8760 176 164 148 4
212.8553 28.7094 147.0279 176 164 148 4
212.8553 33.2031 147.8244 176 164 148 4
212.8553 37.1116 148.1219 176 164 148 4
212.8553 40.1583 147.7548 176 164 148 4
212.8553 44.9034 147.4842 176 164 148 4
212.8553 49.0958 146.8857 176 164 148 4
212.8553 52.4560 147.0516 176 164 148 4
212.8553 56.4613 147.5682 176 164 148 4
212.8553 60.2806 147.0118 176 164 148 4
212.8553 64.4952 147.1715 176 164 148 4
212.8553 68.3237 146.8007 176 164 148 4
212.8553 72.3553 147.6931 176 164 148 4
212.8553 77.0912 147.6818 176 164 148 4
212.8553 81.3907 147.6830 176 164 148 4
212.8553 0.7977 151.9617 176 164 148 4
212.8553 4.6844 152.1441 176 164 148 4
212.8553 8.5400 151.5191 176 164 148 4
