ply
format ascii 1.0
comment generated by citygen
element vertex 1264
property float x
property float y
property float z
property uchar red
property uchar green
property uchar blue
property int class
end_header
167.8876 74.9509 -0.2883 107 132 85 1
167.7416 76.6920 -0.2533 107 132 85 1
168.2564 82.6527 -0.1074 107 132 85 1
168.1590 87.1814 0.0018 107 132 85 1
168.2360 88.6723 0.0389 107 132 85 1
168.2123 92.8232 0.1378 107 132 85 1
167.8691 97.3544 0.2391 107 132 85 1
167.8029 102.2622 0.3377 107 132 85 1
167.9434 103.3506 0.3560 107 132 85 1
168.0527 104.7786 0.3787 107 132 85 1
167.8080 106.4577 0.4076 107 132 85 1
168.0174 108.0021 0.4265 107 132 85 1
168.1642 115.3581 0.4967 107 132 85 1
168.1190 120.1431 0.5204 174 174 166 3
167.7634 121.4318 0.5345 174 174 166 3
168.1815 123.0798 0.5234 47 50 54 2
167.8683 124.6110 0.5343 47 50 54 2
168.1740 126.0786 0.5229 47 50 54 2
168.2439 127.5316 0.5181 47 50 54 2
167.7528 128.8804 0.5329 47 50 54 2
167.9631 130.6614 0.5203 47 50 54 2
168.2642 132.1030 0.5041 47 50 54 2
167.8505 133.3849 0.5146 174 174 166 3
167.9794 135.1762 0.5022 174 174 166 3
168.1358 136.2759 0.4913 107 132 85 1
167.8526 144.0894 0.4646 107 132 85 1
167.8408 181.6017 0.3869 107 132 85 1
167.8648 182.8799 0.3806 107 132 85 1
168.0751 184.3070 0.3709 174 174 166 3
167.7934 186.0404 0.3618 174 174 166 3
168.0763 187.3905 0.3496 47 50 54 2
168.0795 188.7998 0.3376 47 50 54 2
167.7962 190.6737 0.3214 47 50 54 2
167.9567 192.2625 0.3029 47 50 54 2
167.9479 193.2505 0.2911 47 50 54 2
168.2391 194.9294 0.2676 47 50 54 2
168.2091 196.4840 0.2457 47 50 54 2
168.2412 197.7910 0.2257 174 174 166 3
167.9357 199.2487 0.2037 174 174 166 3
168.0876 201.2346 0.1683 107 132 85 1
168.0557 202.7106 0.1410 107 132 85 1
168.0704 205.3781 0.0879 107 132 85 1
167.9229 206.7727 0.0593 107 132 85 1
167.7998 209.9483 -0.0103 107 132 85 1
167.7370 212.8090 -0.0763 107 132 85 1
167.7566 217.4135 -0.1856 107 132 85 1
167.8261 218.8202 -0.2188 107 132 85 1
168.2190 220.4372 -0.2553 107 132 85 1
168.0410 221.8822 -0.2890 107 132 85 1
168.0994 223.4237 -0.3232 107 132 85 1
168.2128 228.1107 -0.4199 107 132 85 1
168.0619 231.0668 -0.4764 107 132 85 1
168.2228 232.5008 -0.4982 107 132 85 1
168.2212 234.0836 -0.5227 107 132 85 1
168.1878 236.8223 -0.5604 107 132 85 1
168.2515 238.2647 -0.5758 107 132 85 1
167.9480 241.2750 -0.6117 107 132 85 1
167.8583 244.7681 -0.6367 107 132 85 1
167.8052 248.9333 -0.6495 174 174 166 3
167.7551 250.7393 -0.6509 174 174 166 3
167.8049 251.7353 -0.6477 47 50 54 2
168.1053 253.6618 -0.6313 47 50 54 2
167.9281 255.2264 -0.6311 47 50 54 2
169.4250 0.0000 -0.3323 47 50 54 2
169.6044 1.5920 -0.3284 47 50 54 2
169.4283 2.9454 -0.3353 47 50 54 2
169.7099 4.5476 -0.3280 47 50 54 2
169.3248 5.7840 -0.3417 174 174 166 3
169.6376 7.5852 -0.3340 174 174 166 3
169.6205 16.6876 -0.3570 107 132 85 1
169.4068 17.7515 -0.3675 107 132 85 1
169.4306 22.5015 -0.3890 107 132 85 1
169.4564 24.1446 -0.3974 107 132 85 1
169.3457 25.4702 -0.4081 107 132 85 1
169.2662 27.0553 -0.4198 107 132 85 1
169.2538 28.7139 -0.4307 107 132 85 1
169.2760 29.8731 -0.4377 107 132 85 1
169.7629 31.4788 -0.4369 107 132 85 1
169.5194 35.8701 -0.4718 107 132 85 1
169.3380 45.1180 -0.5222 107 132 85 1
169.7638 46.4740 -0.5176 107 132 85 1
169.2978 48.1466 -0.5294 107 132 85 1
169.4429 49.4670 -0.5276 107 132 85 1
169.4101 52.3078 -0.5260 107 132 85 1
169.4823 54.0423 -0.5201 107 132 85 1
169.4536 57.1821 -0.5060 174 174 166 3
169.6678 58.5667 -0.4926 174 174 166 3
169.4668 60.2388 -0.4830 47 50 54 2
169.7518 61.4981 -0.4656 47 50 54 2
169.6903 63.2420 -0.4481 47 50 54 2
169.3785 64.3310 -0.4411 47 50 54 2
169.2733 66.0384 -0.4204 47 50 54 2
169.5653 67.3200 -0.3962 47 50 54 2
169.7318 68.8130 -0.3696 47 50 54 2
169.3528 70.3041 -0.3517 174 174 166 3
169.4234 73.5203 -0.2908 107 132 85 1
169.4369 78.0815 -0.1954 107 132 85 1
169.3104 79.6196 -0.1631 107 132 85 1
169.6876 81.0382 -0.1253 107 132 85 1
169.4700 82.7366 -0.0893 107 132 85 1
169.7317 84.0209 -0.0561 107 132 85 1
169.7227 86.9846 0.0124 107 132 85 1
169.5333 91.3416 0.1102 107 132 85 1
169.7136 95.9029 0.2076 107 132 85 1
169.4826 98.8710 0.2654 107 132 85 1
169.6552 106.3195 0.3801 107 132 85 1
169.3904 107.9721 0.4040 107 132 85 1
169.5458 110.7398 0.4293 107 132 85 1
169.5447 114.1682 0.4548 107 132 85 1
169.2760 117.1829 0.4767 107 132 85 1
169.3565 118.5652 0.4790 107 132 85 1
169.6507 119.7632 0.4727 107 132 85 1
169.5174 121.6385 0.4789 174 174 166 3
169.6862 123.0818 0.4733 47 50 54 2
169.5922 124.2790 0.4756 47 50 54 2
169.7629 126.0834 0.4667 47 50 54 2
169.3862 127.3424 0.4774 47 50 54 2
169.6827 129.0706 0.4616 47 50 54 2
169.4285 130.6529 0.4658 47 50 54 2
169.4517 131.7406 0.4608 47 50 54 2
169.4354 133.3298 0.4550 174 174 166 3
169.2761 134.8075 0.4548 174 174 166 3
169.4108 136.7669 0.4409 107 132 85 1
169.5993 139.3446 0.4223 107 132 85 1
169.4634 180.1328 0.3767 107 132 85 1
169.3318 182.8103 0.3678 107 132 85 1
169.4117 184.6272 0.3576 174 174 166 3
169.5929 185.9293 0.3479 174 174 166 3
169.7131 187.3714 0.3366 47 50 54 2
169.6242 188.9605 0.3243 47 50 54 2
169.5348 190.2944 0.3126 47 50 54 2
169.7285 191.9259 0.2940 47 50 54 2
169.6118 193.3331 0.2786 47 50 54 2
169.3242 195.2099 0.2565 47 50 54 2
169.3247 196.7692 0.2343 47 50 54 2
169.5384 198.1852 0.2112 174 174 166 3
169.2569 199.7314 0.1878 174 174 166 3
169.3338 202.4030 0.1399 107 132 85 1
169.5865 203.9776 0.1086 107 132 85 1
169.4081 205.4009 0.0813 107 132 85 1
169.5352 207.1924 0.0438 107 132 85 1
169.3057 212.9953 -0.0829 107 132 85 1
169.5829 214.5252 -0.1178 107 132 85 1
169.2760 217.4802 -0.1850 107 132 85 1
169.4143 219.2171 -0.2237 107 132 85 1
169.2523 220.4128 -0.2508 107 132 85 1
169.3799 221.9364 -0.2834 107 132 85 1
169.6721 224.9388 -0.3434 107 132 85 1
169.5632 228.2483 -0.4070 107 132 85 1
169.5963 229.7126 -0.4319 107 132 85 1
169.7305 231.0281 -0.4513 107 132 85 1
169.3129 235.4102 -0.5201 107 132 85 1
169.3903 238.3004 -0.5499 107 132 85 1
169.5718 239.8131 -0.5585 107 132 85 1
169.6946 246.1765 -0.5847 107 132 85 1
169.3603 249.1750 -0.5969 174 174 166 3
169.6180 250.2683 -0.5863 174 174 166 3
169.7264 252.0147 -0.5775 47 50 54 2
169.4693 253.2635 -0.5823 47 50 54 2
169.3896 254.8823 -0.5775 47 50 54 2
170.7344 0.0000 -0.2922 47 50 54 2
170.9327 1.3846 -0.2869 47 50 54 2
171.1934 2.9198 -0.2796 47 50 54 2
171.2115 4.6845 -0.2803 47 50 54 2
171.1362 6.1922 -0.2842 174 174 166 3
171.1516 7.6747 -0.2857 174 174 166 3
171.1766 9.1749 -0.2874 107 132 85 1
171.1973 13.2469 -0.2969 107 132 85 1
171.1850 14.9873 -0.3033 107 132 85 1
170.9809 16.4779 -0.3153 107 132 85 1
170.7834 17.9471 -0.3276 107 132 85 1
170.9550 19.3249 -0.3293 107 132 85 1
170.8635 21.2187 -0.3421 107 132 85 1
170.8612 22.2783 -0.3483 107 132 85 1
171.0659 24.1784 -0.3545 107 132 85 1
170.7912 25.7304 -0.3720 107 132 85 1
170.8703 29.9909 -0.4001 107 132 85 1
171.1103 32.9689 -0.4162 107 132 85 1
171.0727 34.6941 -0.4296 107 132 85 1
171.0478 38.9525 -0.4586 107 132 85 1
171.0532 40.2482 -0.4661 107 132 85 1
170.9735 42.2317 -0.4781 107 132 85 1
171.0564 44.9164 -0.4874 107 132 85 1
170.8371 46.7200 -0.4969 107 132 85 1
171.0300 47.8091 -0.4950 107 132 85 1
170.8798 49.7331 -0.4995 107 132 85 1
170.9538 51.1893 -0.4974 107 132 85 1
170.9984 52.4115 -0.4946 107 132 85 1
171.1409 53.7617 -0.4882 107 132 85 1
170.8303 55.3958 -0.4883 107 132 85 1
170.9873 56.9580 -0.4768 174 174 166 3
170.8622 58.6205 -0.4683 174 174 166 3
171.0410 59.8035 -0.4552 47 50 54 2
170.8424 61.2483 -0.4462 47 50 54 2
170.9941 62.8511 -0.4262 47 50 54 2
170.8771 64.2722 -0.4119 47 50 54 2
170.7952 66.2517 -0.3873 47 50 54 2
170.9753 67.3127 -0.3683 47 50 54 2
170.7579 69.1275 -0.3443 174 174 166 3
171.0295 70.6240 -0.3138 174 174 166 3
170.7835 73.6637 -0.2629 107 132 85 1
170.8352 78.1279 -0.1713 107 132 85 1
170.7525 79.6939 -0.1390 107 132 85 1
170.7794 80.8793 -0.1127 107 132 85 1
170.9325 82.7640 -0.0690 107 132 85 1
171.1765 84.0643 -0.0372 107 132 85 1
170.9276 87.0936 0.0265 107 132 85 1
170.7781 88.6709 0.0596 107 132 85 1
171.2034 90.1636 0.0943 107 132 85 1
171.1604 92.9695 0.1510 107 132 85 1
170.9200 95.7479 0.2039 107 132 85 1
171.2516 103.2563 0.3203 107 132 85 1
170.7565 107.9488 0.3802 107 132 85 1
170.8357 109.3413 0.3912 107 132 85 1
171.0065 110.8174 0.3988 107 132 85 1
170.7333 116.7703 0.4339 107 132 85 1
171.1191 118.3802 0.4254 107 132 85 1
170.7737 120.1736 0.4376 174 174 166 3
171.0295 121.4207 0.4290 174 174 166 3
170.8273 122.7824 0.4346 174 174 166 3
171.1650 124.7071 0.4194 47 50 54 2
170.7746 126.1897 0.4299 47 50 54 2
171.0671 127.5952 0.4149 47 50 54 2
171.0339 128.7489 0.4122 47 50 54 2
171.1564 130.3004 0.4018 47 50 54 2
171.2346 131.8552 0.3925 47 50 54 2
170.9112 133.3877 0.3985 174 174 166 3
170.8753 135.1372 0.3923 174 174 166 3
171.0065 136.4184 0.3818 107 132 85 1
171.2040 138.2215 0.3668 107 132 85 1
170.8895 139.6562 0.3729 107 132 85 1
170.8651 140.8957 0.3690 107 132 85 1
170.7451 183.1560 0.3523 107 132 85 1
170.7538 184.5866 0.3451 174 174 166 3
170.7679 186.2043 0.3353 174 174 166 3
171.1255 187.3841 0.3235 47 50 54 2
170.9166 188.9078 0.3134 47 50 54 2
170.7734 190.6634 0.2984 47 50 54 2
171.1839 191.9893 0.2810 47 50 54 2
170.8059 193.3514 0.2687 47 50 54 2
170.8086 195.1355 0.2461 47 50 54 2
171.2529 196.2381 0.2273 47 50 54 2
170.9373 197.7633 0.2075 174 174 166 3
170.7522 199.3718 0.1836 174 174 166 3
170.9529 200.8572 0.1572 107 132 85 1
170.7501 202.3565 0.1320 107 132 85 1
171.1545 204.0660 0.0976 107 132 85 1
171.1989 207.2345 0.0351 107 132 85 1
171.1422 208.6214 0.0070 107 132 85 1
170.7781 210.1976 -0.0248 107 132 85 1
170.7418 213.2418 -0.0905 107 132 85 1
171.1779 214.4399 -0.1168 107 132 85 1
171.2613 216.1330 -0.1530 107 132 85 1
171.0859 219.2652 -0.2193 107 132 85 1
171.1661 220.2965 -0.2402 107 132 85 1
171.0132 226.3779 -0.3572 107 132 85 1
170.9587 229.6428 -0.4114 107 132 85 1
171.1536 235.3849 -0.4809 107 132 85 1
170.7727 238.7345 -0.5195 107 132 85 1
170.9097 241.3172 -0.5317 107 132 85 1
170.9852 244.7694 -0.5406 107 132 85 1
171.0701 246.0401 -0.5391 107 132 85 1
170.8553 247.4521 -0.5463 107 132 85 1
170.8809 249.1462 -0.5431 174 174 166 3
171.0557 250.5777 -0.5329 174 174 166 3
170.7500 251.8687 -0.5397 47 50 54 2
170.9606 253.3826 -0.5246 47 50 54 2
171.0694 254.8612 -0.5120 47 50 54 2
172.6553 0.1996 -0.2331 47 50 54 2
172.4099 1.6498 -0.2408 47 50 54 2
172.3826 2.7610 -0.2420 47 50 54 2
172.3922 4.6199 -0.2427 47 50 54 2
172.6898 5.7907 -0.2344 174 174 166 3
172.4174 7.2397 -0.2448 174 174 166 3
172.5403 9.0571 -0.2440 107 132 85 1
172.6789 10.4150 -0.2428 107 132 85 1
172.5630 11.9408 -0.2506 107 132 85 1
172.2714 23.9479 -0.3209 107 132 85 1
172.4758 25.6498 -0.3278 107 132 85 1
172.4239 28.6794 -0.3522 107 132 85 1
172.3912 34.6755 -0.3996 107 132 85 1
172.4471 37.7141 -0.4202 107 132 85 1
172.6856 39.0325 -0.4236 107 132 85 1
172.7389 40.2607 -0.4300 107 132 85 1
172.4801 42.1694 -0.4460 107 132 85 1
172.2485 43.6764 -0.4578 107 132 85 1
172.5893 44.9323 -0.4552 107 132 85 1
172.3565 50.8849 -0.4683 107 132 85 1
172.7148 52.4807 -0.4581 107 132 85 1
172.6755 55.7159 -0.4475 107 132 85 1
172.3052 56.9285 -0.4490 174 174 166 3
172.4219 58.5100 -0.4359 174 174 166 3
172.2305 60.0069 -0.4280 47 50 54 2
172.7316 61.5679 -0.4023 47 50 54 2
172.4273 63.0230 -0.3935 47 50 54 2
172.2798 64.7450 -0.3761 47 50 54 2
172.3594 65.8548 -0.3597 47 50 54 2
172.2583 67.5904 -0.3372 47 50 54 2
172.5417 68.9797 -0.3097 47 50 54 2
172.5747 70.4051 -0.2858 174 174 166 3
172.6901 72.0243 -0.2556 107 132 85 1
172.5656 73.5972 -0.2297 107 132 85 1
172.3693 79.6369 -0.1144 107 132 85 1
172.3239 83.8143 -0.0282 107 132 85 1
172.7233 85.2899 0.0070 107 132 85 1
172.3203 88.4741 0.0675 107 132 85 1
172.6020 96.2592 0.2098 107 132 85 1
172.4324 100.4662 0.2721 107 132 85 1
172.2895 102.0681 0.2938 107 132 85 1
172.5268 109.5164 0.3574 107 132 85 1
172.3985 111.0591 0.3686 107 132 85 1
172.2624 112.3523 0.3778 107 132 85 1
172.2706 116.8593 0.3887 107 132 85 1
172.2311 121.4457 0.3884 174 174 166 3
172.6808 123.2250 0.3689 47 50 54 2
172.2692 124.4730 0.3803 47 50 54 2
172.3406 125.9137 0.3732 47 50 54 2
172.7276 127.2386 0.3541 47 50 54 2
172.3397 128.8290 0.3626 47 50 54 2
172.3135 130.5802 0.3565 47 50 54 2
172.6587 132.2131 0.3363 47 50 54 2
172.7459 133.3324 0.3282 174 174 166 3
172.4914 135.0447 0.3308 174 174 166 3
172.6217 138.1998 0.3136 107 132 85 1
172.4431 141.1264 0.3105 107 132 85 1
172.4975 142.5995 0.3045 107 132 85 1
172.4882 143.8548 0.3019 107 132 85 1
172.2967 145.6683 0.3050 107 132 85 1
172.3771 181.7224 0.3397 107 132 85 1
172.6911 183.0302 0.3313 107 132 85 1
172.5964 184.3581 0.3266 174 174 166 3
172.7123 185.8633 0.3171 174 174 166 3
172.4993 187.4710 0.3088 47 50 54 2
172.2632 188.8284 0.3008 47 50 54 2
172.6376 190.7642 0.2794 47 50 54 2
172.3376 191.9370 0.2705 47 50 54 2
172.4411 193.7633 0.2488 47 50 54 2
172.3394 195.0559 0.2336 47 50 54 2
172.5659 196.6973 0.2092 47 50 54 2
172.6674 197.9766 0.1897 174 174 166 3
172.3428 199.6139 0.1671 174 174 166 3
172.5264 200.8641 0.1450 107 132 85 1
172.6876 203.9721 0.0892 107 132 85 1
172.7394 207.0660 0.0304 107 132 85 1
172.3659 212.8677 -0.0850 107 132 85 1
172.3075 216.0297 -0.1499 107 132 85 1
172.5995 219.0090 -0.2086 107 132 85 1
172.3233 220.2375 -0.2335 107 132 85 1
172.7200 222.2579 -0.2685 107 132 85 1
172.4244 225.1429 -0.3209 107 132 85 1
172.7152 231.2647 -0.4042 107 132 85 1
172.7445 232.5188 -0.4177 107 132 85 1
172.5019 233.8395 -0.4362 107 132 85 1
172.2705 235.6977 -0.4584 107 132 85 1
172.3840 236.8133 -0.4645 107 132 85 1
172.6981 239.9443 -0.4740 107 132 85 1
172.3734 241.5626 -0.4894 107 132 85 1
172.3504 243.2574 -0.4941 107 132 85 1
172.3506 247.2834 -0.4936 107 132 85 1
172.4661 249.0751 -0.4850 174 174 166 3
172.4646 250.7132 -0.4789 174 174 166 3
172.7353 251.9124 -0.4627 47 50 54 2
172.7205 253.5207 -0.4542 47 50 54 2
172.6253 255.1886 -0.4472 47 50 54 2
173.8494 0.0000 -0.1964 47 50 54 2
174.1943 1.2602 -0.1853 47 50 54 2
173.9473 3.2068 -0.1930 47 50 54 2
174.0473 4.3726 -0.1904 47 50 54 2
174.0108 5.7857 -0.1927 174 174 166 3
174.2279 7.4699 -0.1882 174 174 166 3
173.9828 8.9781 -0.1988 107 132 85 1
173.8358 10.3792 -0.2068 107 132 85 1
174.0235 11.9513 -0.2058 107 132 85 1
173.9170 20.9645 -0.2557 107 132 85 1
174.2077 22.2901 -0.2572 107 132 85 1
174.0986 23.9711 -0.2727 107 132 85 1
173.7585 36.2023 -0.3799 107 132 85 1
173.8385 38.9924 -0.3977 107 132 85 1
174.2209 40.7402 -0.3998 107 132 85 1
173.7479 43.2472 -0.4232 107 132 85 1
173.9382 49.3004 -0.4338 107 132 85 1
174.0645 50.9129 -0.4303 107 132 85 1
174.0475 53.7552 -0.4245 107 132 85 1
174.0931 55.6604 -0.4154 107 132 85 1
174.2206 56.8517 -0.4058 174 174 166 3
173.8749 58.5054 -0.4028 174 174 166 3
174.2373 60.1736 -0.3806 47 50 54 2
174.2129 61.2530 -0.3712 47 50 54 2
173.8078 63.2067 -0.3600 47 50 54 2
174.0435 64.3762 -0.3407 47 50 54 2
173.8702 65.9720 -0.3242 47 50 54 2
173.7502 67.5083 -0.3054 47 50 54 2
174.2678 68.7663 -0.2750 47 50 54 2
174.2190 70.4201 -0.2501 174 174 166 3
174.1470 71.9921 -0.2255 174 174 166 3
174.0968 73.7100 -0.1967 107 132 85 1
174.0306 75.0183 -0.1744 107 132 85 1
173.7661 82.2563 -0.0404 107 132 85 1
174.2420 88.7409 0.0864 107 132 85 1
173.8009 89.9533 0.1051 107 132 85 1
174.1084 92.9116 0.1556 107 132 85 1
173.8167 94.6448 0.1824 107 132 85 1
174.2105 95.9172 0.2000 107 132 85 1
173.7794 97.5569 0.2241 107 132 85 1
174.0556 100.5971 0.2585 107 132 85 1
174.0461 103.5292 0.2867 107 132 85 1
174.1336 104.7983 0.2954 107 132 85 1
174.1747 106.4165 0.3056 107 132 85 1
173.9600 108.0851 0.3191 107 132 85 1
173.8407 109.2852 0.3274 107 132 85 1
174.2040 111.0207 0.3249 107 132 85 1
173.9688 112.5220 0.3343 107 132 85 1
173.8811 113.7692 0.3386 107 132 85 1
174.0906 115.7690 0.3334 107 132 85 1
174.1964 119.7434 0.3247 107 132 85 1
174.2266 121.5935 0.3187 174 174 166 3
174.2666 123.0086 0.3127 47 50 54 2
173.8743 124.2425 0.3226 47 50 54 2
174.1588 125.7671 0.3061 47 50 54 2
174.2129 127.5717 0.2965 47 50 54 2
173.8422 128.9658 0.3047 47 50 54 2
173.8864 130.4383 0.2966 47 50 54 2
174.0420 132.0846 0.2835 47 50 54 2
174.0309 133.6940 0.2772 174 174 166 3
173.7834 135.0801 0.2812 174 174 166 3
174.0973 137.9391 0.2591 107 132 85 1
174.2174 139.5009 0.2500 107 132 85 1
174.0288 143.9846 0.2481 107 132 85 1
173.9224 183.2565 0.3154 107 132 85 1
174.2620 184.2354 0.3070 174 174 166 3
173.8131 185.7929 0.3046 174 174 166 3
174.0774 187.5479 0.2902 47 50 54 2
174.1386 189.1820 0.2770 47 50 54 2
174.1235 190.6401 0.2643 47 50 54 2
174.1860 191.7721 0.2524 47 50 54 2
174.0735 193.2863 0.2374 47 50 54 2
173.7525 195.0889 0.2191 47 50 54 2
173.9768 196.4648 0.1986 47 50 54 2
174.0991 198.2245 0.1725 174 174 166 3
173.9372 199.6594 0.1522 174 174 166 3
174.0180 202.6693 0.1022 107 132 85 1
173.8868 203.7733 0.0840 107 132 85 1
174.0983 206.7353 0.0288 107 132 85 1
173.8433 211.5236 -0.0614 107 132 85 1
173.9765 212.8258 -0.0869 107 132 85 1
174.1701 215.9149 -0.1457 107 132 85 1
173.7607 217.2793 -0.1719 107 132 85 1
173.8100 220.6095 -0.2321 107 132 85 1
174.2568 223.4818 -0.2758 107 132 85 1
173.7619 225.0713 -0.3052 107 132 85 1
174.0716 226.3564 -0.3199 107 132 85 1
173.8759 227.8510 -0.3426 107 132 85 1
174.0054 229.5022 -0.3607 107 132 85 1
173.7815 232.5329 -0.3966 107 132 85 1
173.8609 234.1188 -0.4085 107 132 85 1
174.2634 236.8763 -0.4162 107 132 85 1
173.8716 239.7427 -0.4387 107 132 85 1
174.0423 241.3566 -0.4370 107 132 85 1
174.1086 249.1596 -0.4221 174 174 166 3
173.9179 250.5204 -0.4232 174 174 166 3
174.0086 251.7655 -0.4128 47 50 54 2
173.8976 253.3579 -0.4075 47 50 54 2
173.8627 255.1906 -0.3964 47 50 54 2
175.6203 0.0676 -0.1421 47 50 54 2
175.5621 1.5863 -0.1430 47 50 54 2
175.3892 2.9871 -0.1481 47 50 54 2
175.6491 4.5995 -0.1407 47 50 54 2
175.5725 6.2032 -0.1446 174 174 166 3
175.5364 7.5074 -0.1477 174 174 166 3
175.7671 9.0829 -0.1441 107 132 85 1
175.3977 10.6695 -0.1599 107 132 85 1
175.4749 12.1432 -0.1627 107 132 85 1
175.5971 13.4872 -0.1647 107 132 85 1
175.6827 15.0666 -0.1699 107 132 85 1
175.2412 16.6490 -0.1913 107 132 85 1
175.5669 20.7925 -0.2094 107 132 85 1
175.3498 24.0900 -0.2408 107 132 85 1
175.4373 26.9436 -0.2626 107 132 85 1
175.6489 31.3249 -0.2956 107 132 85 1
175.3114 36.0651 -0.3428 107 132 85 1
175.5306 40.3485 -0.3673 107 132 85 1
175.4514 42.2675 -0.3796 107 132 85 1
175.5346 47.8406 -0.3953 107 132 85 1
175.6039 49.3792 -0.3947 107 132 85 1
175.2611 52.2549 -0.3998 107 132 85 1
175.7461 53.8905 -0.3831 107 132 85 1
175.6455 55.4391 -0.3790 107 132 85 1
175.2438 57.0855 -0.3797 174 174 166 3
175.6728 58.6223 -0.3583 174 174 166 3
175.2314 59.8744 -0.3591 47 50 54 2
175.3285 61.4435 -0.3422 47 50 54 2
175.2355 62.7419 -0.3310 47 50 54 2
175.3390 64.4901 -0.3084 47 50 54 2
175.3799 65.8204 -0.2906 47 50 54 2
175.2621 67.6957 -0.2678 47 50 54 2
175.3125 68.8618 -0.2495 47 50 54 2
175.5176 70.4729 -0.2201 174 174 166 3
175.4003 73.2791 -0.1769 107 132 85 1
175.2599 79.7045 -0.0658 107 132 85 1
175.3909 82.4680 -0.0138 107 132 85 1
175.3734 89.8912 0.1119 107 132 85 1
175.5222 94.2844 0.1750 107 132 85 1
175.3861 97.7581 0.2168 107 132 85 1
175.5725 100.6732 0.2430 107 132 85 1
175.5190 103.5969 0.2651 107 132 85 1
175.7255 107.8957 0.2807 107 132 85 1
175.7666 109.3647 0.2831 107 132 85 1
175.3591 113.8338 0.2966 107 132 85 1
175.4511 115.5064 0.2922 107 132 85 1
175.7644 116.8582 0.2797 107 132 85 1
175.3178 118.3534 0.2905 107 132 85 1
175.6330 120.0867 0.2744 174 174 166 3
175.6780 121.2721 0.2685 174 174 166 3
175.7037 123.0297 0.2603 47 50 54 2
175.3799 124.6382 0.2653 47 50 54 2
175.4605 126.0805 0.2558 47 50 54 2
175.7632 127.3303 0.2386 47 50 54 2
175.3630 128.9388 0.2465 47 50 54 2
175.3829 130.2603 0.2397 47 50 54 2
175.7340 131.8138 0.2194 47 50 54 2
175.4686 133.3323 0.2234 174 174 166 3
175.7400 135.0798 0.2065 174 174 166 3
175.7106 136.4221 0.2032 107 132 85 1
175.7694 138.1432 0.1962 107 132 85 1
175.6118 139.6489 0.1987 107 132 85 1
175.6343 142.3193 0.1940 107 132 85 1
175.3151 143.8042 0.2040 107 132 85 1
175.2323 148.6813 0.2092 107 132 85 1
175.3733 151.5215 0.2109 107 132 85 1
175.5161 152.8243 0.2106 107 132 85 1
175.5917 154.4506 0.2143 107 132 85 1
175.6497 159.2348 0.2337 107 132 85 1
175.4690 163.4715 0.2585 107 132 85 1
175.3622 166.5058 0.2751 107 132 85 1
175.4041 169.6722 0.2877 107 132 85 1
175.6029 171.2653 0.2900 107 132 85 1
175.6786 172.4500 0.2925 107 132 85 1
175.2535 175.6229 0.3060 107 132 85 1
175.2738 176.7388 0.3067 107 132 85 1
175.6237 181.7197 0.2974 107 132 85 1
175.7017 182.9216 0.2928 107 132 85 1
175.4304 184.6380 0.2898 174 174 166 3
175.3104 185.9115 0.2849 174 174 166 3
175.2637 187.5760 0.2751 47 50 54 2
175.3813 189.2404 0.2611 47 50 54 2
175.6109 190.4716 0.2476 47 50 54 2
175.5660 192.1749 0.2318 47 50 54 2
175.6666 193.3224 0.2183 47 50 54 2
175.5567 194.8775 0.2016 47 50 54 2
175.3954 196.5290 0.1825 47 50 54 2
175.5572 197.7678 0.1638 174 174 166 3
175.3545 199.3878 0.1425 174 174 166 3
175.6970 200.9007 0.1160 107 132 85 1
175.5812 202.7602 0.0873 107 132 85 1
175.7268 204.1044 0.0637 107 132 85 1
175.6940 205.7461 0.0360 107 132 85 1
175.4151 208.2596 -0.0067 107 132 85 1
175.3648 210.2614 -0.0426 107 132 85 1
175.4914 211.2971 -0.0618 107 132 85 1
175.7023 214.6705 -0.1220 107 132 85 1
175.5503 216.1390 -0.1476 107 132 85 1
175.5197 218.7964 -0.1922 107 132 85 1
175.6278 223.3534 -0.2601 107 132 85 1
175.3779 225.1993 -0.2875 107 132 85 1
175.3217 236.7466 -0.3868 107 132 85 1
175.4312 239.8996 -0.3913 107 132 85 1
175.7508 243.1178 -0.3796 107 132 85 1
175.6968 249.1525 -0.3599 174 174 166 3
175.4989 250.6008 -0.3596 174 174 166 3
175.3606 252.2619 -0.3548 47 50 54 2
175.6661 253.5464 -0.3332 47 50 54 2
175.5688 254.8423 -0.3278 47 50 54 2
177.2470 0.2001 -0.0928 47 50 54 2
176.8017 1.6212 -0.1051 47 50 54 2
176.9684 2.8270 -0.0997 47 50 54 2
176.9708 4.4362 -0.1000 47 50 54 2
177.1210 6.1770 -0.0972 174 174 166 3
177.2071 7.6305 -0.0971 174 174 166 3
176.7612 11.8603 -0.1234 107 132 85 1
176.9172 14.9024 -0.1335 107 132 85 1
177.0924 16.3563 -0.1370 107 132 85 1
177.1624 19.7642 -0.1585 107 132 85 1
176.8683 21.0913 -0.1766 107 132 85 1
176.7716 24.0678 -0.2036 107 132 85 1
177.2534 27.2306 -0.2193 107 132 85 1
177.1954 33.2482 -0.2747 107 132 85 1
177.1072 34.7573 -0.2895 107 132 85 1
177.1281 35.7824 -0.2973 107 132 85 1
177.1155 37.6543 -0.3117 107 132 85 1
176.9440 39.2241 -0.3266 107 132 85 1
177.0835 43.6634 -0.3467 107 132 85 1
176.7693 44.9027 -0.3588 107 132 85 1
176.7380 47.8198 -0.3659 107 132 85 1
177.2216 50.9884 -0.3531 107 132 85 1
177.2080 52.6522 -0.3500 107 132 85 1
176.8618 54.0994 -0.3541 107 132 85 1
177.2213 55.6901 -0.3374 107 132 85 1
177.2356 57.0724 -0.3289 174 174 166 3
176.9131 58.2457 -0.3294 174 174 166 3
177.0984 60.1844 -0.3089 47 50 54 2
177.0143 61.6221 -0.2977 47 50 54 2
176.9305 62.8906 -0.2867 47 50 54 2
177.2355 64.5456 -0.2601 47 50 54 2
177.2695 66.1467 -0.2396 47 50 54 2
176.9530 67.5417 -0.2291 47 50 54 2
176.8291 69.2070 -0.2086 174 174 166 3
177.1361 70.5233 -0.1819 174 174 166 3
176.9993 72.1641 -0.1600 107 132 85 1
176.9183 74.7380 -0.1207 107 132 85 1
177.2540 76.5142 -0.0850 107 132 85 1
177.1242 78.2202 -0.0595 107 132 85 1
177.1758 79.4619 -0.0382 107 132 85 1
177.0636 81.2683 -0.0105 107 132 85 1
177.1595 83.9389 0.0334 107 132 85 1
177.2223 85.3624 0.0559 107 132 85 1
177.0374 86.7655 0.0751 107 132 85 1
176.9749 88.7049 0.1025 107 132 85 1
177.0556 90.1437 0.1224 107 132 85 1
176.7769 93.0398 0.1581 107 132 85 1
177.2304 94.2980 0.1713 107 132 85 1
176.9224 97.5844 0.2040 107 132 85 1
176.7402 99.0021 0.2172 107 132 85 1
176.9512 100.5590 0.2259 107 132 85 1
177.0989 102.1591 0.2330 107 132 85 1
176.9175 103.6004 0.2425 107 132 85 1
177.0865 105.0399 0.2446 107 132 85 1
177.2560 106.6462 0.2448 107 132 85 1
177.0289 107.9458 0.2516 107 132 85 1
177.2481 119.9574 0.2185 107 132 85 1
176.7484 121.5305 0.2291 174 174 166 3
177.0940 122.9744 0.2096 174 174 166 3
177.1008 124.7545 0.2004 47 50 54 2
177.0202 125.8388 0.1980 47 50 54 2
177.1584 127.3727 0.1851 47 50 54 2
176.7702 128.7845 0.1932 47 50 54 2
177.2612 130.5286 0.1663 47 50 54 2
176.7494 132.2295 0.1787 47 50 54 2
177.1339 133.2335 0.1601 174 174 166 3
177.1539 134.9965 0.1533 174 174 166 3
177.1291 136.7108 0.1494 107 132 85 1
177.0456 139.4245 0.1472 107 132 85 1
177.2304 141.0119 0.1390 107 132 85 1
177.2204 142.2373 0.1389 107 132 85 1
176.7984 145.5653 0.1551 107 132 85 1
176.8260 147.0838 0.1566 107 132 85 1
177.1154 148.5149 0.1509 107 132 85 1
177.0205 150.1232 0.1586 107 132 85 1
176.7926 152.8834 0.1755 107 132 85 1
177.2176 154.2454 0.1701 107 132 85 1
177.0137 156.1502 0.1850 107 132 85 1
177.1492 157.3917 0.1883 107 132 85 1
176.7896 159.2538 0.2072 107 132 85 1
177.0271 164.9753 0.2347 107 132 85 1
177.0540 166.2995 0.2415 107 132 85 1
176.8836 177.2413 0.2822 107 132 85 1
177.1471 178.6851 0.2784 107 132 85 1
176.9065 184.2587 0.2705 174 174 166 3
176.7317 185.7903 0.2658 174 174 166 3
176.8831 187.4440 0.2539 47 50 54 2
177.0439 188.9037 0.2413 47 50 54 2
176.7827 190.3931 0.2328 47 50 54 2
176.9594 191.9479 0.2160 47 50 54 2
176.9894 193.4015 0.2006 47 50 54 2
176.9656 194.8933 0.1841 47 50 54 2
176.9881 196.7668 0.1608 47 50 54 2
177.0619 197.9121 0.1448 174 174 166 3
177.2503 199.6052 0.1191 174 174 166 3
176.8827 200.8043 0.1055 107 132 85 1
176.9064 202.2496 0.0833 107 132 85 1
176.9691 203.9597 0.0557 107 132 85 1
176.9411 205.4856 0.0312 107 132 85 1
176.8286 208.6972 -0.0217 107 132 85 1
177.0589 209.9381 -0.0436 107 132 85 1
176.8438 211.4065 -0.0674 107 132 85 1
177.0793 212.9803 -0.0940 107 132 85 1
177.0982 214.3803 -0.1166 107 132 85 1
176.8579 216.0670 -0.1437 107 132 85 1
177.0146 217.6091 -0.1670 107 132 85 1
177.0409 219.0734 -0.1883 107 132 85 1
177.0736 220.5930 -0.2092 107 132 85 1
177.2649 224.9054 -0.2593 107 132 85 1
176.8125 230.8562 -0.3190 107 132 85 1
176.9392 233.8935 -0.3325 107 132 85 1
177.0212 238.4089 -0.3404 107 132 85 1
176.9845 240.0894 -0.3414 107 132 85 1
176.8803 241.6015 -0.3430 107 132 85 1
176.8152 249.2194 -0.3147 174 174 166 3
177.1569 250.5372 -0.2923 174 174 166 3
177.2168 252.1566 -0.2785 47 50 54 2
177.1918 253.2751 -0.2713 47 50 54 2
176.7670 254.9209 -0.2766 47 50 54 2
178.4891 0.0000 -0.0560 47 50 54 2
178.4439 1.5289 -0.0557 47 50 54 2
178.2530 2.9194 -0.0609 47 50 54 2
178.7662 4.3305 -0.0460 47 50 54 2
178.7495 6.0052 -0.0482 174 174 166 3
178.4812 7.6121 -0.0591 174 174 166 3
178.2534 8.9428 -0.0693 107 132 85 1
178.7405 11.8622 -0.0660 107 132 85 1
178.4944 17.9408 -0.1089 107 132 85 1
178.3454 20.9789 -0.1364 107 132 85 1
178.6201 23.9178 -0.1546 107 132 85 1
178.4868 25.4167 -0.1715 107 132 85 1
178.4323 27.1471 -0.1889 107 132 85 1
178.4291 28.6505 -0.2029 107 132 85 1
178.5874 29.9797 -0.2112 107 132 85 1
178.7384 46.7325 -0.3131 107 132 85 1
178.6085 48.1265 -0.3181 107 132 85 1
178.5561 49.3284 -0.3196 107 132 85 1
178.4627 50.9087 -0.3206 107 132 85 1
178.5980 52.3659 -0.3138 107 132 85 1
178.3180 56.8913 -0.3011 174 174 166 3
178.6949 58.4971 -0.2797 174 174 166 3
178.4261 60.1498 -0.2737 47 50 54 2
178.4713 61.5232 -0.2599 47 50 54 2
178.5117 63.1345 -0.2424 47 50 54 2
178.6307 64.6220 -0.2227 47 50 54 2
178.6990 65.8903 -0.2059 47 50 54 2
178.6086 67.6168 -0.1865 47 50 54 2
178.5154 69.1213 -0.1687 174 174 166 3
178.3087 70.2658 -0.1578 174 174 166 3
178.2307 72.1556 -0.1322 107 132 85 1
178.6729 75.1333 -0.0781 107 132 85 1
178.6196 76.5034 -0.0586 107 132 85 1
178.2478 78.2413 -0.0391 107 132 85 1
178.5556 79.5451 -0.0140 107 132 85 1
178.2599 81.2543 0.0069 107 132 85 1
178.7361 83.8791 0.0507 107 132 85 1
178.6736 85.6952 0.0742 107 132 85 1
178.4768 91.5208 0.1414 107 132 85 1
178.3269 94.2563 0.1674 107 132 85 1
178.4198 97.6525 0.1922 107 132 85 1
178.6938 100.6453 0.2038 107 132 85 1
178.3804 103.5534 0.2171 107 132 85 1
178.3115 105.0118 0.2208 107 132 85 1
178.4330 106.6010 0.2193 107 132 85 1
178.7422 107.8530 0.2115 107 132 85 1
178.3797 109.5668 0.2182 107 132 85 1
178.3019 110.7994 0.2179 107 132 85 1
178.5316 112.4850 0.2068 107 132 85 1
178.4073 115.3445 0.1999 107 132 85 1
178.7147 116.7953 0.1832 107 132 85 1
178.5637 118.6467 0.1790 107 132 85 1
178.6297 119.7697 0.1707 107 132 85 1
178.2805 121.7341 0.1726 174 174 166 3
178.3660 122.9076 0.1631 174 174 166 3
178.6823 124.6210 0.1418 47 50 54 2
178.7656 125.9145 0.1316 47 50 54 2
178.6216 127.6157 0.1281 47 50 54 2
178.7200 128.7591 0.1187 47 50 54 2
178.2637 130.3415 0.1288 47 50 54 2
178.3273 131.8101 0.1202 47 50 54 2
178.6922 133.2600 0.1011 174 174 166 3
178.5105 134.7947 0.1031 174 174 166 3
178.5486 136.6890 0.0972 107 132 85 1
178.5764 139.6403 0.0924 107 132 85 1
178.2761 140.9869 0.1025 107 132 85 1
178.4305 147.2153 0.1068 107 132 85 1
178.7306 151.3875 0.1148 107 132 85 1
178.4643 153.2386 0.1317 107 132 85 1
178.7126 156.1317 0.1422 107 132 85 1
178.6076 162.0463 0.1836 107 132 85 1
178.5874 163.7637 0.1953 107 132 85 1
178.5700 165.1304 0.2044 107 132 85 1
178.7566 167.9468 0.2176 107 132 85 1
178.6535 169.6742 0.2288 107 132 85 1
178.3904 171.2043 0.2408 107 132 85 1
178.6071 176.9825 0.2534 107 132 85 1
178.3264 180.0608 0.2587 107 132 85 1
178.5634 181.5179 0.2528 107 132 85 1
178.4953 182.9044 0.2506 107 132 85 1
178.4220 184.7542 0.2451 174 174 166 3
178.7581 185.8883 0.2345 174 174 166 3
178.6188 187.5183 0.2274 47 50 54 2
178.6995 188.9618 0.2163 47 50 54 2
178.6934 190.4948 0.2044 47 50 54 2
178.2326 191.7699 0.1999 47 50 54 2
178.5688 193.2894 0.1802 47 50 54 2
178.3902 195.0419 0.1637 47 50 54 2
178.4921 196.6480 0.1433 47 50 54 2
178.4649 197.8133 0.1291 174 174 166 3
178.7008 199.5941 0.1027 174 174 166 3
178.6978 200.9705 0.0838 107 132 85 1
178.4552 206.9875 -0.0035 107 132 85 1
178.5187 208.4156 -0.0259 107 132 85 1
178.7520 213.0998 -0.0972 107 132 85 1
178.3389 220.5658 -0.1986 107 132 85 1
178.4355 223.3031 -0.2276 107 132 85 1
178.5213 225.1100 -0.2434 107 132 85 1
178.4082 228.1482 -0.2686 107 132 85 1
178.5109 230.9663 -0.2820 107 132 85 1
178.4986 235.3475 -0.2940 107 132 85 1
178.3784 237.1303 -0.2983 107 132 85 1
178.3571 238.4170 -0.2982 107 132 85 1
178.5639 242.8444 -0.2794 107 132 85 1
178.3472 244.4654 -0.2803 107 132 85 1
178.6762 247.7620 -0.2486 107 132 85 1
178.2826 249.0544 -0.2561 174 174 166 3
178.4476 250.2995 -0.2406 174 174 166 3
178.4968 252.0159 -0.2258 47 50 54 2
178.3019 253.4293 -0.2231 47 50 54 2
178.3031 254.7460 -0.2126 47 50 54 2
180.0225 0.0660 -0.0109 47 50 54 2
180.0790 1.3473 -0.0078 47 50 54 2
179.7522 3.0732 -0.0165 47 50 54 2
180.2381 4.4246 -0.0029 47 50 54 2
179.7646 6.0155 -0.0184 174 174 166 3
179.9613 7.3696 -0.0154 174 174 166 3
179.9806 9.1363 -0.0198 107 132 85 1
180.1776 14.9987 -0.0430 107 132 85 1
179.9944 18.1413 -0.0701 107 132 85 1
179.9445 19.3277 -0.0807 107 132 85 1
180.1152 21.1335 -0.0913 107 132 85 1
180.0100 26.9730 -0.1474 107 132 85 1
179.8755 28.5531 -0.1657 107 132 85 1
180.2305 31.4217 -0.1833 107 132 85 1
180.0828 32.9468 -0.2005 107 132 85 1
180.0098 35.7669 -0.2256 107 132 85 1
180.1098 37.2471 -0.2341 107 132 85 1
179.9546 38.8283 -0.2488 107 132 85 1
180.2231 40.3821 -0.2510 107 132 85 1
180.1220 42.0553 -0.2621 107 132 85 1
180.0579 43.4362 -0.2694 107 132 85 1
180.2481 47.7646 -0.2734 107 132 85 1
180.1211 49.7262 -0.2766 107 132 85 1
179.9266 50.9021 -0.2805 107 132 85 1
180.0417 54.1251 -0.2675 107 132 85 1
180.1180 55.7443 -0.2574 107 132 85 1
179.7698 56.9469 -0.2603 174 174 166 3
179.7920 58.4800 -0.2491 174 174 166 3
180.0813 59.9998 -0.2288 47 50 54 2
179.8681 61.6773 -0.2198 47 50 54 2
179.8370 63.2685 -0.2048 47 50 54 2
180.1847 64.5642 -0.1813 47 50 54 2
180.1159 66.0926 -0.1659 47 50 54 2
179.9968 67.2821 -0.1548 47 50 54 2
180.2693 68.8305 -0.1284 47 50 54 2
179.7978 70.3980 -0.1198 174 174 166 3
179.8482 71.7316 -0.1006 174 174 166 3
180.1324 73.5873 -0.0689 107 132 85 1
180.1548 75.0962 -0.0478 107 132 85 1
180.2358 84.2534 0.0715 107 132 85 1
180.1092 87.2058 0.1026 107 132 85 1
179.8150 88.4468 0.1136 107 132 85 1
179.7585 94.7006 0.1645 107 132 85 1
180.0815 96.0761 0.1699 107 132 85 1
179.7443 99.2143 0.1854 107 132 85 1
180.1140 100.5114 0.1835 107 132 85 1
179.8305 102.1595 0.1900 107 132 85 1
179.9964 103.3243 0.1876 107 132 85 1
180.0471 105.1377 0.1854 107 132 85 1
179.7783 106.5899 0.1891 107 132 85 1
179.9404 107.8446 0.1825 107 132 85 1
179.8163 109.2567 0.1815 107 132 85 1
179.9395 111.1717 0.1711 107 132 85 1
179.9561 112.4637 0.1649 107 132 85 1
179.9462 113.8819 0.1582 107 132 85 1
179.8993 116.8632 0.1432 107 132 85 1
179.9737 118.3159 0.1320 107 132 85 1
180.1770 120.0817 0.1139 174 174 166 3
179.7311 121.3536 0.1221 174 174 166 3
180.2157 122.8568 0.0951 174 174 166 3
179.9579 124.5368 0.0946 47 50 54 2
180.2481 126.1694 0.0743 47 50 54 2
180.0371 127.5038 0.0751 47 50 54 2
180.1052 129.1464 0.0643 47 50 54 2
180.2486 130.3110 0.0537 47 50 54 2
179.8267 132.0643 0.0626 47 50 54 2
179.9052 133.2502 0.0557 174 174 166 3
179.8119 134.7637 0.0550 174 174 166 3
180.0801 136.6109 0.0417 107 132 85 1
180.1310 138.2011 0.0384 107 132 85 1
180.2650 140.8718 0.0343 107 132 85 1
180.0572 142.6133 0.0436 107 132 85 1
180.1605 153.1164 0.0856 107 132 85 1
180.0552 154.5365 0.0977 107 132 85 1
180.1319 160.7518 0.1407 107 132 85 1
180.1645 161.7725 0.1475 107 132 85 1
179.9145 169.7077 0.2049 107 132 85 1
179.8992 172.7366 0.2193 107 132 85 1
180.1792 173.7515 0.2178 107 132 85 1
179.7454 180.0515 0.2346 107 132 85 1
179.9619 181.5733 0.2289 107 132 85 1
179.9630 183.0428 0.2256 107 132 85 1
179.8230 184.3743 0.2236 174 174 166 3
180.1099 186.2483 0.2103 174 174 166 3
179.7700 187.3753 0.2098 47 50 54 2
180.1812 188.8111 0.1938 47 50 54 2
180.2553 190.4928 0.1800 47 50 54 2
180.0568 191.8483 0.1717 47 50 54 2
180.2574 193.4541 0.1536 47 50 54 2
179.9678 194.9901 0.1421 47 50 54 2
180.1593 196.3677 0.1241 47 50 54 2
180.1186 197.8258 0.1076 174 174 166 3
179.7912 199.6625 0.0888 174 174 166 3
180.0151 205.3067 0.0097 107 132 85 1
179.9160 207.0438 -0.0140 107 132 85 1
180.2542 208.3363 -0.0340 107 132 85 1
179.9134 209.8907 -0.0540 107 132 85 1
180.0836 211.4954 -0.0764 107 132 85 1
179.8453 212.8174 -0.0938 107 132 85 1
180.2165 214.4981 -0.1152 107 132 85 1
179.9409 216.1985 -0.1366 107 132 85 1
180.1885 217.6164 -0.1517 107 132 85 1
179.9092 222.0993 -0.1987 107 132 85 1
180.1237 226.4233 -0.2265 107 132 85 1
180.1041 229.5031 -0.2405 107 132 85 1
179.8505 232.2809 -0.2533 107 132 85 1
180.0468 235.5261 -0.2486 107 132 85 1
179.7924 238.6869 -0.2506 107 132 85 1
180.1483 242.8960 -0.2203 107 132 85 1
179.9911 244.5806 -0.2165 107 132 85 1
180.0480 247.4812 -0.1949 107 132 85 1
180.2220 248.7645 -0.1783 174 174 166 3
179.9777 250.4072 -0.1758 174 174 166 3
180.1497 252.1834 -0.1545 47 50 54 2
179.7935 253.5294 -0.1588 47 50 54 2
179.7573 255.1339 -0.1474 47 50 54 2
181.6713 0.1642 0.0364 47 50 54 2
181.6583 1.4108 0.0376 47 50 54 2
181.7355 2.7988 0.0405 47 50 54 2
181.6884 4.4758 0.0385 47 50 54 2
181.3450 5.7962 0.0272 174 174 166 3
181.3236 7.4343 0.0232 174 174 166 3
181.2501 8.8693 0.0169 107 132 85 1
181.3557 15.1640 -0.0123 107 132 85 1
181.3803 18.1924 -0.0339 107 132 85 1
181.6569 22.3575 -0.0625 107 132 85 1
181.6790 24.2685 -0.0796 107 132 85 1
181.3879 30.1706 -0.1426 107 132 85 1
181.6285 35.8363 -0.1844 107 132 85 1
181.7410 37.5391 -0.1936 107 132 85 1
181.5891 39.0128 -0.2070 107 132 85 1
181.5240 41.9936 -0.2240 107 132 85 1
181.3777 44.8028 -0.2375 107 132 85 1
181.6160 46.5963 -0.2340 107 132 85 1
181.2363 48.2593 -0.2457 107 132 85 1
181.6117 49.5128 -0.2343 107 132 85 1
181.4809 52.2759 -0.2325 107 132 85 1
181.6654 55.6776 -0.2126 107 132 85 1
181.5176 57.0575 -0.2088 174 174 166 3
181.4818 58.4825 -0.2001 174 174 166 3
181.3723 60.1767 -0.1901 47 50 54 2
181.4635 61.5417 -0.1755 47 50 54 2
181.4418 63.0146 -0.1622 47 50 54 2
181.4610 64.5379 -0.1462 47 50 54 2
181.5050 65.9961 -0.1292 47 50 54 2
181.7517 67.5066 -0.1055 47 50 54 2
181.5990 69.0516 -0.0916 174 174 166 3
181.4230 70.3515 -0.0803 174 174 166 3
181.3494 72.0335 -0.0613 107 132 85 1
181.4145 73.7589 -0.0382 107 132 85 1
181.3528 74.7985 -0.0266 107 132 85 1
181.4600 76.4928 -0.0034 107 132 85 1
181.3935 79.6623 0.0333 107 132 85 1
181.2879 80.8856 0.0458 107 132 85 1
181.5869 82.7237 0.0696 107 132 85 1
181.5524 88.7062 0.1223 107 132 85 1
181.7296 89.7684 0.1299 107 132 85 1
181.6330 91.7020 0.1410 107 132 85 1
181.7420 92.7480 0.1457 107 132 85 1
181.4481 94.3377 0.1535 107 132 85 1
181.3168 95.9067 0.1596 107 132 85 1
181.6135 98.8566 0.1613 107 132 85 1
181.2790 100.3379 0.1663 107 132 85 1
181.2898 106.3401 0.1548 107 132 85 1
181.5583 109.6537 0.1331 107 132 85 1
181.4368 112.2378 0.1217 107 132 85 1
181.6738 114.2207 0.1016 107 132 85 1
181.6608 115.2933 0.0947 107 132 85 1
181.5905 118.5996 0.0739 107 132 85 1
181.4790 120.1826 0.0668 174 174 166 3
181.6171 121.3344 0.0539 174 174 166 3
181.6099 123.1408 0.0420 47 50 54 2
181.4741 124.7358 0.0369 47 50 54 2
181.4612 125.8568 0.0307 47 50 54 2
181.5360 127.5600 0.0185 47 50 54 2
181.3405 129.0160 0.0186 47 50 54 2
181.4121 130.7139 0.0086 47 50 54 2
181.3896 132.1403 0.0044 47 50 54 2
181.2482 133.6356 0.0052 174 174 166 3
181.4068 134.7496 -0.0030 174 174 166 3
181.6792 142.5712 -0.0093 107 132 85 1
181.6609 146.8424 0.0074 107 132 85 1
181.3608 151.7140 0.0443 107 132 85 1
181.2827 152.7352 0.0534 107 132 85 1
181.2442 154.3839 0.0661 107 132 85 1
181.5708 155.9030 0.0694 107 132 85 1
181.6554 161.9245 0.1157 107 132 85 1
181.3166 166.4732 0.1570 107 132 85 1
181.6307 167.9323 0.1603 107 132 85 1
181.4269 171.1641 0.1829 107 132 85 1
181.5696 172.7429 0.1873 107 132 85 1
181.7396 173.8677 0.1884 107 132 85 1
181.2597 175.4363 0.2024 107 132 85 1
181.3506 176.9546 0.2038 107 132 85 1
181.4844 178.7060 0.2031 107 132 85 1
181.3133 180.1756 0.2062 107 132 85 1
181.3117 181.6294 0.2046 107 132 85 1
181.7297 182.7440 0.1946 107 132 85 1
181.6888 184.5930 0.1897 174 174 166 3
181.6547 185.8108 0.1853 174 174 166 3
181.6616 187.5492 0.1763 47 50 54 2
181.2761 189.1043 0.1733 47 50 54 2
181.7209 190.5888 0.1549 47 50 54 2
181.2351 191.7932 0.1533 47 50 54 2
181.6402 193.6332 0.1303 47 50 54 2
181.3053 194.9056 0.1231 47 50 54 2
181.2405 196.2891 0.1095 47 50 54 2
181.4343 198.2696 0.0847 174 174 166 3
181.2640 199.5371 0.0721 174 174 166 3
181.6332 200.9656 0.0503 107 132 85 1
181.4701 204.1129 0.0130 107 132 85 1
181.4026 206.9372 -0.0224 107 132 85 1
181.3819 208.3140 -0.0397 107 132 85 1
181.7576 209.9702 -0.0616 107 132 85 1
181.4773 211.3906 -0.0777 107 132 85 1
181.5854 213.0020 -0.0963 107 132 85 1
181.7418 214.5684 -0.1130 107 132 85 1
181.6442 218.7718 -0.1531 107 132 85 1
181.3058 220.4779 -0.1700 107 132 85 1
181.3143 221.7402 -0.1792 107 132 85 1
181.6769 223.2631 -0.1840 107 132 85 1
181.5527 228.0532 -0.2050 107 132 85 1
181.6048 229.2373 -0.2060 107 132 85 1
181.3761 232.2633 -0.2132 107 132 85 1
181.2309 234.2009 -0.2153 107 132 85 1
181.2447 235.5023 -0.2123 107 132 85 1
181.2976 237.2019 -0.2055 107 132 85 1
181.5287 238.6093 -0.1920 107 132 85 1
181.4364 240.1388 -0.1877 107 132 85 1
181.6286 242.7604 -0.1649 107 132 85 1
181.6912 249.1228 -0.1143 174 174 166 3
181.5002 250.3899 -0.1119 174 174 166 3
181.2448 252.1437 -0.1082 47 50 54 2
181.5857 253.7413 -0.0805 47 50 54 2
181.6684 254.7618 -0.0687 47 50 54 2
183.2131 0.0000 0.0789 47 50 54 2
183.1616 1.5513 0.0796 47 50 54 2
183.1352 3.1936 0.0794 47 50 54 2
183.1823 4.4265 0.0800 47 50 54 2
183.2201 5.8348 0.0791 174 174 166 3
182.8195 7.7319 0.0637 174 174 166 3
183.1666 9.0127 0.0688 107 132 85 1
182.8634 10.6824 0.0536 107 132 85 1
182.7755 11.8458 0.0455 107 132 85 1
182.8042 14.7535 0.0287 107 132 85 1
182.8556 18.2653 0.0037 107 132 85 1
182.9969 20.7429 -0.0138 107 132 85 1
183.1121 22.6928 -0.0286 107 132 85 1
182.9704 25.7111 -0.0605 107 132 85 1
183.1019 26.8539 -0.0680 107 132 85 1
183.1332 28.4568 -0.0823 107 132 85 1
183.1821 31.4724 -0.1083 107 132 85 1
183.0770 34.3057 -0.1346 107 132 85 1
182.9814 36.0472 -0.1502 107 132 85 1
182.9155 39.2149 -0.1721 107 132 85 1
183.0518 41.9172 -0.1812 107 132 85 1
183.0729 45.0518 -0.1896 107 132 85 1
183.1270 51.0262 -0.1866 107 132 85 1
182.9844 52.7577 -0.1858 107 132 85 1
182.9498 54.0492 -0.1818 107 132 85 1
183.0776 56.9836 -0.1622 174 174 166 3
182.7921 58.4103 -0.1614 174 174 166 3
183.0418 60.0032 -0.1419 47 50 54 2
183.0747 61.6557 -0.1271 47 50 54 2
183.1287 62.9286 -0.1141 47 50 54 2
183.2582 64.2734 -0.0976 47 50 54 2
183.0469 66.1901 -0.0845 47 50 54 2
183.2294 67.4512 -0.0663 47 50 54 2
182.9962 69.0240 -0.0557 174 174 166 3
183.0827 70.2490 -0.0400 174 174 166 3
183.1493 73.7403 -0.0002 107 132 85 1
183.2623 74.8238 0.0138 107 132 85 1
183.0386 76.5300 0.0273 107 132 85 1
183.0435 78.0347 0.0429 107 132 85 1
182.9774 80.8024 0.0686 107 132 85 1
183.2490 85.5403 0.1089 107 132 85 1
183.1037 86.8402 0.1162 107 132 85 1
182.7425 89.9261 0.1315 107 132 85 1
183.2557 91.3158 0.1363 107 132 85 1
182.7637 94.7180 0.1459 107 132 85 1
182.8878 95.9893 0.1460 107 132 85 1
183.2625 97.2876 0.1416 107 132 85 1
183.0732 99.0301 0.1414 107 132 85 1
183.0909 106.2762 0.1123 107 132 85 1
183.0502 107.9804 0.1030 107 132 85 1
182.7815 110.8447 0.0911 107 132 85 1
182.9242 112.3888 0.0756 107 132 85 1
182.7988 113.7389 0.0693 107 132 85 1
182.8451 115.3588 0.0553 107 132 85 1
182.7454 117.0492 0.0455 107 132 85 1
182.7572 120.1713 0.0213 174 174 166 3
182.7581 121.2949 0.0130 174 174 166 3
182.8977 123.0573 -0.0046 47 50 54 2
182.9349 124.3004 -0.0142 47 50 54 2
182.9841 126.1074 -0.0271 47 50 54 2
183.1990 127.7668 -0.0441 47 50 54 2
183.0815 128.9467 -0.0454 47 50 54 2
182.8691 130.4253 -0.0438 47 50 54 2
182.8655 131.8256 -0.0484 47 50 54 2
183.1669 133.6259 -0.0637 174 174 166 3
183.0747 135.1203 -0.0627 174 174 166 3
182.8532 136.3664 -0.0559 107 132 85 1
183.2543 137.8369 -0.0694 107 132 85 1
182.9836 139.3657 -0.0587 107 132 85 1
182.8389 141.2245 -0.0502 107 132 85 1
182.8912 142.5371 -0.0480 107 132 85 1
183.0548 144.1091 -0.0472 107 132 85 1
183.2276 145.6816 -0.0449 107 132 85 1
182.9136 148.5013 -0.0196 107 132 85 1
183.1017 150.1369 -0.0138 107 132 85 1
182.7901 152.9093 0.0151 107 132 85 1
182.8013 155.9151 0.0392 107 132 85 1
182.7447 157.3765 0.0529 107 132 85 1
182.9967 158.7986 0.0591 107 132 85 1
182.8159 161.9802 0.0904 107 132 85 1
183.1470 163.6192 0.0965 107 132 85 1
183.0809 166.6301 0.1211 107 132 85 1
182.8962 167.9429 0.1341 107 132 85 1
182.7481 175.2695 0.1728 107 132 85 1
183.0289 182.7484 0.1697 107 132 85 1
183.2514 184.4953 0.1605 174 174 166 3
182.7933 185.9301 0.1637 174 174 166 3
182.7612 187.4797 0.1567 47 50 54 2
183.1276 188.9824 0.1411 47 50 54 2
183.2330 190.4428 0.1295 47 50 54 2
183.1221 191.8903 0.1206 47 50 54 2
182.8364 193.3121 0.1137 47 50 54 2
183.1559 195.2228 0.0912 47 50 54 2
182.8567 196.4747 0.0837 47 50 54 2
182.9958 197.7527 0.0686 174 174 166 3
183.1619 199.2475 0.0506 174 174 166 3
183.2143 200.8905 0.0323 107 132 85 1
183.0438 202.5838 0.0155 107 132 85 1
183.0281 205.5205 -0.0172 107 132 85 1
183.2578 207.2007 -0.0373 107 132 85 1
182.9701 214.2642 -0.1071 107 132 85 1
182.9038 215.9003 -0.1213 107 132 85 1
182.7352 219.1469 -0.1465 107 132 85 1
182.8835 225.1515 -0.1719 107 132 85 1
182.8061 232.5776 -0.1733 107 132 85 1
182.8651 233.8786 -0.1678 107 132 85 1
182.8270 235.6599 -0.1621 107 132 85 1
182.9076 237.2441 -0.1518 107 132 85 1
182.7430 239.7732 -0.1428 107 132 85 1
183.0748 242.9790 -0.1076 107 132 85 1
182.8964 244.6687 -0.1012 107 132 85 1
182.9495 245.8522 -0.0894 107 132 85 1
182.8022 248.9264 -0.0694 174 174 166 3
183.0461 250.5506 -0.0452 174 174 166 3
183.1712 252.1000 -0.0267 47 50 54 2
183.0196 253.6470 -0.0202 47 50 54 2
183.2662 255.2314 0.0029 47 50 54 2
184.6684 0.1321 0.1183 47 50 54 2
184.2892 1.6944 0.1102 47 50 54 2
184.6484 3.1828 0.1201 47 50 54 2
184.7661 4.5759 0.1222 47 50 54 2
184.4750 5.9080 0.1125 174 174 166 3
184.7149 7.6489 0.1143 174 174 166 3
184.3614 9.0688 0.1001 174 174 166 3
184.3853 10.5633 0.0942 174 174 166 3
184.7443 11.9011 0.0965 174 174 166 3
184.6963 13.6177 0.0850 174 174 166 3
184.7228 15.1385 0.0753 174 174 166 3
184.5765 16.3118 0.0630 174 174 166 3
184.2437 17.7900 0.0429 174 174 166 3
184.7346 19.5771 0.0403 174 174 166 3
184.6274 21.2332 0.0230 174 174 166 3
184.2801 22.6786 0.0010 174 174 166 3
184.2531 24.0240 -0.0122 174 174 166 3
184.4648 25.7604 -0.0231 174 174 166 3
184.2635 26.9426 -0.0393 174 174 166 3
184.3056 28.3000 -0.0508 174 174 166 3
184.5303 29.8972 -0.0594 174 174 166 3
184.7388 31.5237 -0.0680 174 174 166 3
184.2764 33.0887 -0.0931 174 174 166 3
184.3488 34.5577 -0.1025 174 174 166 3
184.5213 36.0448 -0.1083 174 174 166 3
184.4231 37.4740 -0.1202 174 174 166 3
184.6437 39.0847 -0.1230 174 174 166 3
184.5767 40.5307 -0.1318 174 174 166 3
184.3403 41.8477 -0.1438 174 174 166 3
184.6080 43.3604 -0.1406 174 174 166 3
184.7517 44.7666 -0.1392 174 174 166 3
184.4349 46.7395 -0.1508 174 174 166 3
184.6287 47.9733 -0.1447 174 174 166 3
184.6106 49.2352 -0.1441 174 174 166 3
184.3393 51.2105 -0.1486 174 174 166 3
184.6896 52.6984 -0.1330 174 174 166 3
184.4328 54.0958 -0.1354 174 174 166 3
184.4819 55.6514 -0.1262 174 174 166 3
184.7572 57.0627 -0.1094 174 174 166 3
184.6774 58.3611 -0.1035 174 174 166 3
184.4723 59.9235 -0.0987 47 50 54 2
184.4982 61.7650 -0.0834 47 50 54 2
184.4745 63.1022 -0.0727 47 50 54 2
184.6278 64.6138 -0.0547 47 50 54 2
184.7399 66.0285 -0.0385 47 50 54 2
184.6934 67.4272 -0.0266 47 50 54 2
184.5349 68.7833 -0.0178 47 50 54 2
184.2999 70.2426 -0.0095 174 174 166 3
184.7313 72.0881 0.0190 174 174 166 3
184.6703 73.4376 0.0303 174 174 166 3
184.4192 74.9509 0.0390 174 174 166 3
184.3608 76.7127 0.0539 174 174 166 3
184.2519 78.0397 0.0636 174 174 166 3
184.3151 79.4862 0.0765 174 174 166 3
184.3617 80.8522 0.0876 174 174 166 3
184.6933 82.5479 0.1028 174 174 166 3
184.2648 83.8510 0.1064 174 174 166 3
184.7065 85.2804 0.1172 174 174 166 3
184.7022 87.0072 0.1239 174 174 166 3
184.2592 88.5502 0.1277 174 174 166 3
184.4852 90.0670 0.1314 174 174 166 3
184.4264 91.4721 0.1334 174 174 166 3
184.5618 93.1153 0.1333 174 174 166 3
184.7691 94.5786 0.1303 174 174 166 3
184.4885 96.2670 0.1296 174 174 166 3
184.3927 97.3070 0.1280 174 174 166 3
184.7256 98.9644 0.1175 174 174 166 3
184.5105 100.4415 0.1142 174 174 166 3
184.5537 102.1145 0.1045 174 174 166 3
184.4295 103.2661 0.1002 174 174 166 3
184.6331 104.8670 0.0850 174 174 166 3
184.2882 106.6234 0.0806 174 174 166 3
184.6368 108.0009 0.0609 174 174 166 3
184.5893 109.4745 0.0499 174 174 166 3
184.6644 110.9473 0.0350 174 174 166 3
184.5645 112.2549 0.0264 174 174 166 3
184.3211 114.1967 0.0169 174 174 166 3
184.6462 115.5482 -0.0057 174 174 166 3
184.5817 116.8967 -0.0155 174 174 166 3
184.3884 118.3492 -0.0214 174 174 166 3
184.7098 119.9259 -0.0458 174 174 166 3
184.4645 121.3335 -0.0484 174 174 166 3
184.5736 122.7867 -0.0632 174 174 166 3
184.6484 124.5581 -0.0781 47 50 54 2
184.5634 125.9419 -0.0837 47 50 54 2
184.5620 127.5545 -0.0925 47 50 54 2
184.2512 128.8881 -0.0876 47 50 54 2
184.4428 130.2307 -0.0998 47 50 54 2
184.5220 132.2123 -0.1085 47 50 54 2
184.2506 133.3551 -0.1013 174 174 166 3
184.5200 134.7693 -0.1123 174 174 166 3
184.4320 136.3303 -0.1097 174 174 166 3
184.3894 138.2433 -0.1067 174 174 166 3
184.7644 139.4971 -0.1164 174 174 166 3
184.5145 141.2362 -0.1034 174 174 166 3
184.5828 142.4083 -0.1011 174 174 166 3
184.3179 143.7571 -0.0871 174 174 166 3
184.5049 145.5594 -0.0831 174 174 166 3
184.2596 147.1001 -0.0666 174 174 166 3
184.5785 148.6656 -0.0648 174 174 166 3
184.4777 149.8558 -0.0532 174 174 166 3
184.4446 151.6777 -0.0379 174 174 166 3
184.4119 153.1938 -0.0243 174 174 166 3
184.4180 154.3262 -0.0146 174 174 166 3
184.7492 155.8308 -0.0093 174 174 166 3
184.3202 157.6079 0.0173 174 174 166 3
184.3901 158.8829 0.0272 174 174 166 3
184.3072 160.7644 0.0461 174 174 166 3
184.6906 161.8879 0.0473 174 174 166 3
184.4617 163.6493 0.0677 174 174 166 3
