ply
format ascii 1.0
comment generated by citygen
element vertex 1260
property float x
property float y
property float z
property uchar red
property uchar green
property uchar blue
property int class
end_header
615.6434 0.1433 506.9861 47 50 54 2
616.0113 0.2344 510.8654 47 50 54 2
615.5876 0.3023 514.8483 47 50 54 2
615.9378 0.3587 518.1572 47 50 54 2
616.1751 0.4081 522.1486 47 50 54 2
615.7995 0.4234 525.2189 47 50 54 2
615.9712 0.4385 527.9988 47 50 54 2
615.6631 0.4354 531.9249 174 174 166 3
615.5227 0.4260 534.8139 174 174 166 3
616.5814 0.4347 538.7582 174 174 166 3
616.4653 0.4121 542.2029 174 174 166 3
615.4564 0.3549 546.1858 174 174 166 3
615.4062 0.3257 549.8647 174 174 166 3
616.3631 0.3407 552.8794 174 174 166 3
616.6828 0.3365 556.6899 174 174 166 3
615.4187 0.2708 560.0216 174 174 166 3
616.1942 0.3022 564.1064 174 174 166 3
615.3901 0.2633 566.3718 174 174 166 3
616.6487 0.3433 570.9754 174 174 166 3
616.0057 0.3210 573.7046 174 174 166 3
615.8398 0.3377 578.0325 174 174 166 3
615.8688 0.3562 580.5251 174 174 166 3
616.2070 0.3992 584.1071 174 174 166 3
615.8425 0.4050 588.3126 174 174 166 3
615.3475 0.3944 591.1833 174 174 166 3
616.1274 0.4407 595.3778 174 174 166 3
615.4863 0.4131 598.9883 174 174 166 3
615.7736 0.4137 601.6879 174 174 166 3
615.5659 0.3861 605.0078 174 174 166 3
615.9637 0.3463 609.3383 174 174 166 3
616.4730 0.2939 612.8901 107 132 85 1
615.7312 0.2330 615.9486 47 50 54 2
616.0588 0.1527 619.6001 47 50 54 2
616.3594 0.0661 622.9875 47 50 54 2
615.9561 -0.0273 626.8401 174 174 166 3
615.3647 -0.1125 630.6553 174 174 166 3
615.4406 -0.2008 634.0607 174 174 166 3
615.9059 -0.2838 636.8612 174 174 166 3
615.4089 -0.3581 640.9129 174 174 166 3
616.1648 -0.5408 650.5539 107 132 85 1
616.5037 -0.5883 654.9876 107 132 85 1
616.6007 -0.6012 661.1053 107 132 85 1
615.6695 -0.5528 665.2033 174 174 166 3
616.6628 -0.5563 669.1700 107 132 85 1
615.3562 -0.4807 672.2268 174 174 166 3
616.6662 -0.4808 676.1065 174 174 166 3
616.2486 -0.4381 678.3684 47 50 54 2
615.6615 -0.3666 682.3293 47 50 54 2
616.1401 -0.3423 685.8514 174 174 166 3
616.5775 -0.2910 693.0424 107 132 85 1
615.8471 -0.2335 697.0050 107 132 85 1
615.5598 -0.2066 700.2501 174 174 166 3
616.5940 -0.2462 703.7243 107 132 85 1
616.3747 -0.2352 707.0332 107 132 85 1
615.7035 -0.2403 727.7127 174 174 166 3
616.6931 -0.2506 730.8163 107 132 85 1
615.8737 -0.1367 742.0314 107 132 85 1
615.4117 0.1081 755.4728 47 50 54 2
615.6143 0.2249 760.1608 47 50 54 2
616.2798 0.3078 762.4282 47 50 54 2
615.5797 0.3562 765.8537 174 174 166 3
615.8904 0.4634 770.1436 107 132 85 1
616.3630 0.4460 808.6414 107 132 85 1
616.1949 0.3038 816.1662 107 132 85 1
615.9218 0.2547 818.5244 107 132 85 1
616.3865 0.2010 822.8320 107 132 85 1
615.8025 0.0698 833.1457 174 174 166 3
615.4898 0.0434 835.9721 47 50 54 2
615.6332 0.0328 839.9646 47 50 54 2
616.6541 0.0529 844.0150 174 174 166 3
615.7993 0.0315 847.4303 107 132 85 1
615.8985 0.0377 853.6062 107 132 85 1
615.7530 0.0365 858.1461 107 132 85 1
616.1368 0.0350 860.5106 107 132 85 1
616.6657 0.0185 864.3727 107 132 85 1
615.6657 -0.0183 871.1145 107 132 85 1
615.7555 -0.1038 878.1815 107 132 85 1
616.4716 -0.2014 882.4114 107 132 85 1
615.3208 -0.2666 888.7306 107 132 85 1
615.6248 -0.4874 899.4395 107 132 85 1
616.5719 -0.6858 910.6700 174 174 166 3
615.5631 -0.6452 913.2868 174 174 166 3
616.0552 -0.6762 917.0675 174 174 166 3
616.0427 -0.6623 920.7395 174 174 166 3
615.8363 -0.6264 924.1067 174 174 166 3
615.4580 -0.5731 927.4250 174 174 166 3
616.3500 -0.5469 931.0300 174 174 166 3
616.0881 -0.4829 933.9982 174 174 166 3
616.0366 -0.4056 937.6254 174 174 166 3
616.1544 -0.3317 941.0349 174 174 166 3
615.3146 -0.2310 944.7356 174 174 166 3
615.3718 -0.1536 948.2770 174 174 166 3
615.8297 -0.0732 952.4549 174 174 166 3
616.5864 -0.0327 955.1109 107 132 85 1
616.0080 0.0341 958.5815 174 174 166 3
616.4547 0.0829 962.4594 107 132 85 1
615.7282 0.1305 966.2466 174 174 166 3
615.4202 0.1528 968.8652 174 174 166 3
616.5006 0.1658 973.2289 107 132 85 1
615.5836 0.1773 976.2512 174 174 166 3
616.6187 0.1762 979.3638 107 132 85 1
616.5554 0.1750 983.8725 47 50 54 2
615.5795 0.1646 987.1913 47 50 54 2
616.2011 0.1659 990.9548 47 50 54 2
616.6388 0.1733 993.3534 174 174 166 3
616.2739 0.1739 998.0758 174 174 166 3
619.0460 -0.4573 0.1622 174 174 166 3
619.4717 -0.4937 4.0865 174 174 166 3
619.4284 -0.5002 7.0697 174 174 166 3
618.9456 -0.4842 10.9772 174 174 166 3
619.8245 -0.5225 13.7092 174 174 166 3
619.2525 -0.4888 17.5126 174 174 166 3
620.1669 -0.4954 21.0607 174 174 166 3
619.8613 -0.4104 27.3094 174 174 166 3
619.9558 0.1504 49.2062 174 174 166 3
619.1698 0.2491 53.1646 107 132 85 1
619.4514 0.3480 56.2392 174 174 166 3
619.7150 0.4386 59.1672 47 50 54 2
619.6413 0.5313 62.9358 47 50 54 2
619.9324 0.6310 67.1063 174 174 166 3
619.5591 0.6683 70.1135 107 132 85 1
619.9414 0.7266 73.5499 107 132 85 1
619.9035 0.7659 80.8030 107 132 85 1
619.4306 0.7035 90.6773 107 132 85 1
619.4434 0.6706 93.8122 107 132 85 1
619.8549 0.5800 101.6901 107 132 85 1
620.0597 0.4109 115.6147 174 174 166 3
618.9416 0.3305 119.5167 47 50 54 2
619.9712 0.3482 123.0891 47 50 54 2
619.3476 0.3068 126.0390 174 174 166 3
618.8729 0.2659 133.2001 107 132 85 1
619.2443 0.2679 140.0766 107 132 85 1
619.7932 0.2580 147.0761 107 132 85 1
619.4595 0.1949 154.2840 107 132 85 1
619.2993 0.1538 157.6819 107 132 85 1
619.3960 0.0389 164.6509 107 132 85 1
619.5723 -0.3204 179.1648 107 132 85 1
619.1054 -0.3884 182.4263 107 132 85 1
619.0402 -0.4784 186.0045 107 132 85 1
619.0485 -0.6294 192.4390 107 132 85 1
620.0379 -0.7432 195.7354 174 174 166 3
619.5450 -0.7710 199.1007 107 132 85 1
619.8234 -0.8246 202.7344 174 174 166 3
619.8485 -0.8469 206.3575 174 174 166 3
619.2959 -0.8138 213.1274 174 174 166 3
619.1677 -0.7790 216.7789 47 50 54 2
620.1364 -0.7603 220.8795 47 50 54 2
619.4281 -0.6778 224.4159 174 174 166 3
618.9346 -0.6128 227.0676 174 174 166 3
619.2923 -0.5389 231.2211 174 174 166 3
619.0406 -0.4651 234.3472 174 174 166 3
619.2542 -0.3934 237.9860 174 174 166 3
619.4018 -0.3336 241.0734 174 174 166 3
619.6964 -0.2697 244.8059 174 174 166 3
619.3463 -0.1869 249.1593 174 174 166 3
619.6854 -0.1493 252.4022 174 174 166 3
619.0669 -0.1001 255.1266 174 174 166 3
619.3913 -0.0756 258.3703 174 174 166 3
620.1923 -0.0615 262.5493 47 50 54 2
619.7488 -0.0279 266.5112 47 50 54 2
620.0706 -0.0223 268.8416 47 50 54 2
619.5397 0.0030 272.6889 47 50 54 2
619.0183 0.0244 276.8804 174 174 166 3
619.2299 0.0351 279.6327 47 50 54 2
620.0788 0.0562 282.9314 47 50 54 2
619.1058 0.0785 286.5284 47 50 54 2
619.5811 0.1257 290.5922 47 50 54 2
619.7650 0.1767 294.1255 47 50 54 2
619.7507 0.2326 297.6649 47 50 54 2
619.9746 0.3115 301.5066 47 50 54 2
619.1461 0.3320 304.3232 47 50 54 2
619.8245 0.4332 307.6852 47 50 54 2
619.3581 0.5006 311.9493 47 50 54 2
619.5476 0.5894 315.6840 47 50 54 2
619.0468 0.6070 318.0113 47 50 54 2
619.0035 0.6871 322.6270 47 50 54 2
619.0719 0.7250 324.8359 47 50 54 2
619.7811 0.8188 329.4000 47 50 54 2
619.4846 0.8212 331.9060 47 50 54 2
619.1173 0.8154 335.8969 47 50 54 2
620.0992 0.8527 339.5565 47 50 54 2
619.5266 0.8012 343.0619 47 50 54 2
618.9508 0.7381 346.5269 47 50 54 2
619.3589 0.6877 350.4450 47 50 54 2
618.9232 0.6272 352.8602 47 50 54 2
619.2963 0.5394 357.1305 47 50 54 2
619.0393 0.4348 361.0358 47 50 54 2
619.9601 0.3694 364.0410 47 50 54 2
619.9086 0.2666 367.7513 47 50 54 2
619.1828 0.1778 370.7526 47 50 54 2
620.0005 0.0763 375.1408 47 50 54 2
619.1259 -0.0047 378.3631 47 50 54 2
620.1034 -0.0608 381.5259 47 50 54 2
619.1725 -0.1365 385.5718 47 50 54 2
619.7405 -0.1669 387.9637 47 50 54 2
619.1544 -0.2086 391.3428 47 50 54 2
620.0137 -0.2425 395.7129 47 50 54 2
619.4495 -0.2612 398.8643 47 50 54 2
619.0849 -0.2725 402.1305 47 50 54 2
619.5411 -0.2851 406.4949 47 50 54 2
618.9071 -0.2833 409.3380 47 50 54 2
619.4507 -0.2964 412.7977 47 50 54 2
619.0068 -0.2965 416.5382 47 50 54 2
619.0138 -0.3106 420.6118 47 50 54 2
619.8783 -0.3539 423.3578 174 174 166 3
620.1408 -0.3982 427.3771 174 174 166 3
619.2873 -0.3927 430.4868 47 50 54 2
619.0631 -0.4137 433.4151 47 50 54 2
619.4721 -0.4841 437.3686 174 174 166 3
620.1071 -0.5673 440.7700 47 50 54 2
620.1565 -0.6230 444.4283 47 50 54 2
619.5145 -0.6304 447.7836 174 174 166 3
619.3894 -0.6616 450.8871 174 174 166 3
619.0930 -0.6860 454.9061 174 174 166 3
620.0789 -0.7671 458.3083 174 174 166 3
619.8097 -0.7643 461.7446 174 174 166 3
619.2987 -0.7355 466.1565 174 174 166 3
618.8774 -0.7037 468.9197 174 174 166 3
620.0764 -0.7203 472.1059 174 174 166 3
619.3901 -0.6332 476.4972 174 174 166 3
620.1805 -0.5871 479.8105 107 132 85 1
619.4124 -0.5013 482.8632 174 174 166 3
619.2440 -0.4056 486.5044 174 174 166 3
619.8026 -0.3039 490.2202 107 132 85 1
619.0566 0.0229 501.0880 107 132 85 1
619.1150 0.3471 514.2808 107 132 85 1
620.0402 0.4120 517.3779 107 132 85 1
619.4238 0.4551 521.3498 174 174 166 3
619.0117 0.4765 524.4415 47 50 54 2
620.1924 0.5166 528.1243 47 50 54 2
619.6300 0.5153 535.2337 107 132 85 1
619.8030 0.5105 539.4068 107 132 85 1
620.0591 0.4861 550.1772 107 132 85 1
619.3220 0.4544 552.3315 107 132 85 1
619.8337 0.5146 570.1830 107 132 85 1
620.0293 0.5917 581.0135 107 132 85 1
620.0390 0.6078 584.5635 107 132 85 1
619.9477 0.6104 587.4830 107 132 85 1
619.5593 0.5925 591.2908 107 132 85 1
619.6430 0.5541 599.0687 107 132 85 1
618.9045 0.4999 602.1024 107 132 85 1
620.1625 0.2347 615.6025 174 174 166 3
619.2821 0.1430 618.9660 47 50 54 2
619.7238 -0.0054 623.6770 47 50 54 2
619.4520 -0.0954 626.7201 107 132 85 1
619.5450 -0.2006 630.0658 107 132 85 1
618.8045 -0.4642 640.6079 107 132 85 1
619.4872 -0.5567 644.0406 107 132 85 1
619.8672 -0.6315 647.8659 107 132 85 1
619.8547 -0.7068 657.6495 107 132 85 1
620.1967 -0.6800 668.0119 107 132 85 1
620.0781 -0.6034 675.6226 174 174 166 3
619.6277 -0.5568 678.4700 47 50 54 2
619.1509 -0.4994 682.1119 47 50 54 2
619.6784 -0.4769 686.3755 174 174 166 3
619.3324 -0.3746 702.8424 107 132 85 1
619.1220 -0.3616 714.6184 107 132 85 1
618.9331 -0.3529 716.9689 107 132 85 1
618.8239 -0.3429 721.0295 107 132 85 1
620.0939 -0.2871 732.0910 107 132 85 1
620.1600 -0.0161 745.3567 107 132 85 1
619.3062 0.2569 755.9619 174 174 166 3
619.2892 0.3758 760.1749 47 50 54 2
619.0804 0.4331 762.5836 47 50 54 2
619.0611 0.5442 766.9848 174 174 166 3
619.0727 0.6789 773.4156 107 132 85 1
619.4579 0.7465 776.6629 107 132 85 1
619.7618 0.8011 780.5636 107 132 85 1
619.4661 0.4822 811.9970 107 132 85 1
619.4850 0.3656 818.5660 107 132 85 1
619.2373 0.3052 821.8717 107 132 85 1
619.1188 0.1794 832.3102 107 132 85 1
619.7087 0.1649 836.9974 47 50 54 2
619.8491 0.1514 840.2873 47 50 54 2
620.0043 0.1442 842.8072 47 50 54 2
619.8740 0.1249 846.6288 174 174 166 3
619.5527 0.0633 857.5988 107 132 85 1
620.1000 0.0312 861.3233 107 132 85 1
618.8816 -0.0394 868.0496 107 132 85 1
620.1466 -0.1996 875.5153 107 132 85 1
619.6645 -0.3338 882.2379 107 132 85 1
620.1497 -0.4369 885.5857 107 132 85 1
618.8705 -0.4706 889.6637 107 132 85 1
619.3379 -0.8300 916.8137 107 132 85 1
619.4052 -0.8098 920.1311 107 132 85 1
619.8900 -0.7714 924.6657 107 132 85 1
620.0808 -0.7233 927.8003 107 132 85 1
618.9930 -0.5520 934.4095 107 132 85 1
620.1441 -0.5072 937.4079 107 132 85 1
619.5654 -0.3781 942.0238 107 132 85 1
619.6957 -0.1476 951.7609 107 132 85 1
620.1944 -0.0888 955.0184 107 132 85 1
619.5710 0.0474 962.7879 107 132 85 1
619.5874 0.1146 969.2042 107 132 85 1
619.0117 0.1455 972.9236 107 132 85 1
619.4877 0.1728 980.0951 107 132 85 1
619.6594 0.1833 983.2156 174 174 166 3
619.8421 0.1982 986.9500 47 50 54 2
619.9931 0.2193 990.8783 47 50 54 2
619.9238 0.2684 997.7089 107 132 85 1
623.0286 -0.6679 0.1909 47 50 54 2
622.8327 -0.6644 3.2365 47 50 54 2
622.5784 -0.6545 6.7230 47 50 54 2
622.6425 -0.6528 10.1520 47 50 54 2
622.4402 -0.6270 14.1253 47 50 54 2
623.5722 -0.6301 18.0934 47 50 54 2
623.3025 -0.5844 20.8537 47 50 54 2
622.8691 -0.5012 25.0961 47 50 54 2
623.2007 -0.4381 28.2239 47 50 54 2
623.5243 -0.3383 32.1046 47 50 54 2
622.8204 -0.2398 35.4597 47 50 54 2
622.9873 -0.1538 38.1631 47 50 54 2
623.3916 -0.0419 41.3382 47 50 54 2
623.1622 0.1243 46.1676 47 50 54 2
623.4211 0.2510 49.5767 47 50 54 2
623.3670 0.3531 52.5745 47 50 54 2
623.3378 0.4559 55.7381 47 50 54 2
622.6404 0.5278 58.8398 47 50 54 2
622.5077 0.6315 62.9230 47 50 54 2
622.6475 0.7097 66.2400 174 174 166 3
622.5314 0.7731 70.0980 174 174 166 3
622.7562 0.8288 74.1440 174 174 166 3
623.1184 0.8610 77.1141 47 50 54 2
622.7202 0.8581 80.9314 174 174 166 3
622.5660 0.8474 84.1847 174 174 166 3
623.2514 0.8543 86.8614 47 50 54 2
623.4487 0.7895 94.5479 107 132 85 1
623.3659 0.6647 104.4324 107 132 85 1
622.4721 0.5422 112.1139 107 132 85 1
623.6349 0.5593 115.2045 107 132 85 1
622.4573 0.4771 119.3845 47 50 54 2
623.2401 0.4907 122.3744 47 50 54 2
623.0939 0.4639 126.1691 47 50 54 2
623.4574 0.4434 133.6888 107 132 85 1
623.2447 0.3745 143.0332 107 132 85 1
623.4301 0.3355 147.1461 107 132 85 1
623.6852 -0.0322 164.8712 107 132 85 1
622.6919 -0.1039 168.0398 107 132 85 1
623.4558 -0.3456 175.1227 47 50 54 2
623.2605 -0.4489 178.5559 47 50 54 2
623.3386 -0.5544 181.8187 47 50 54 2
623.2951 -0.6416 184.8029 47 50 54 2
623.3733 -0.7416 188.3249 47 50 54 2
622.3193 -0.7784 191.9077 47 50 54 2
623.1898 -0.8978 196.0190 47 50 54 2
622.7706 -0.9229 199.0760 47 50 54 2
622.8935 -0.9616 202.5584 47 50 54 2
623.3654 -0.9956 206.3233 47 50 54 2
623.0902 -0.9777 210.1285 47 50 54 2
623.3416 -0.9611 213.7043 47 50 54 2
622.7632 -0.9027 217.0940 47 50 54 2
622.5436 -0.8508 220.1237 47 50 54 2
622.9710 -0.7904 224.2045 47 50 54 2
622.5359 -0.7182 227.1473 47 50 54 2
623.2962 -0.6484 231.3627 47 50 54 2
623.0898 -0.5589 235.1663 47 50 54 2
623.3522 -0.5175 237.4098 47 50 54 2
622.4777 -0.3953 242.1777 47 50 54 2
622.3551 -0.3405 244.8958 47 50 54 2
622.9486 -0.2912 248.7719 47 50 54 2
623.6590 -0.2557 252.5542 47 50 54 2
622.8553 -0.1933 255.7112 47 50 54 2
622.5003 -0.1417 259.6764 47 50 54 2
623.5497 -0.1447 262.1141 47 50 54 2
623.1790 -0.1070 265.3769 47 50 54 2
623.5721 -0.0808 269.2917 47 50 54 2
622.3043 -0.0257 273.6598 47 50 54 2
623.3712 -0.0036 277.0110 47 50 54 2
623.5685 0.0356 280.3444 47 50 54 2
622.5699 0.0816 284.0990 47 50 54 2
623.1864 0.1356 287.2369 47 50 54 2
623.4139 0.1872 289.8916 47 50 54 2
623.1515 0.2696 294.2394 47 50 54 2
622.6648 0.3139 296.9397 47 50 54 2
623.6024 0.4477 301.0976 47 50 54 2
622.7264 0.4976 304.5535 47 50 54 2
623.2092 0.6209 308.5213 47 50 54 2
622.4871 0.6500 311.1876 47 50 54 2
623.5826 0.8063 315.3631 47 50 54 2
622.7929 0.8223 318.1411 47 50 54 2
622.6343 0.8732 321.3563 47 50 54 2
623.3553 0.9675 325.1487 47 50 54 2
623.1044 0.9913 329.0455 47 50 54 2
622.7431 0.9890 332.8561 47 50 54 2
623.5608 1.0186 336.4618 47 50 54 2
622.6096 0.9565 339.7190 47 50 54 2
623.0099 0.9275 343.3762 47 50 54 2
623.4944 0.9009 345.8988 47 50 54 2
623.5731 0.8174 349.9562 174 174 166 3
623.6359 0.7288 353.5548 174 174 166 3
623.3913 0.6229 357.2087 174 174 166 3
622.3648 0.4896 361.1848 47 50 54 2
623.6698 0.4144 364.4469 174 174 166 3
622.4493 0.2881 368.1839 47 50 54 2
622.6904 0.2100 371.0993 47 50 54 2
623.0884 0.1294 374.3457 47 50 54 2
622.8543 0.0365 378.1090 174 174 166 3
623.4895 -0.0208 381.1165 174 174 166 3
623.0842 -0.0848 384.3029 174 174 166 3
622.7759 -0.1518 388.4173 174 174 166 3
623.5041 -0.1960 392.3640 174 174 166 3
622.7004 -0.2283 395.0591 174 174 166 3
622.6742 -0.2643 399.4567 174 174 166 3
622.8130 -0.2878 402.8804 174 174 166 3
623.0171 -0.3350 409.8452 107 132 85 1
622.5028 -0.4040 419.5510 174 174 166 3
623.0844 -0.4660 423.4097 107 132 85 1
622.6803 -0.4928 426.6201 107 132 85 1
622.7913 -0.5555 430.6119 107 132 85 1
622.3252 -0.5824 433.8052 107 132 85 1
622.7129 -0.6525 436.8932 174 174 166 3
622.9410 -0.7388 441.3648 47 50 54 2
623.4245 -0.8226 444.9553 47 50 54 2
623.6247 -0.8738 447.8077 174 174 166 3
623.0871 -0.8830 451.2739 107 132 85 1
622.4824 -0.8975 459.0354 107 132 85 1
623.5284 -0.9465 461.7197 107 132 85 1
622.8129 -0.8543 469.2720 107 132 85 1
623.0736 -0.8006 473.1036 107 132 85 1
622.8365 -0.7186 476.6654 107 132 85 1
622.6077 -0.5277 483.6083 107 132 85 1
622.9497 -0.4265 486.9421 107 132 85 1
622.7924 -0.3465 489.3347 107 132 85 1
622.5470 -0.0852 497.0813 107 132 85 1
622.4755 0.3251 511.3607 107 132 85 1
623.0374 0.3856 513.9792 107 132 85 1
622.5371 0.5039 522.0677 47 50 54 2
622.7892 0.5292 524.3583 47 50 54 2
622.3505 0.5522 528.6818 47 50 54 2
623.0595 0.5769 532.4188 174 174 166 3
623.6388 0.5950 536.0752 107 132 85 1
622.5116 0.5727 542.5375 107 132 85 1
623.0508 0.5884 546.6259 107 132 85 1
622.8476 0.5845 549.6552 107 132 85 1
623.1572 0.6010 552.4396 107 132 85 1
622.8326 0.6352 563.5612 107 132 85 1
623.6943 0.6992 566.3894 107 132 85 1
622.8380 0.6790 570.0024 107 132 85 1
622.6934 0.7025 574.5951 107 132 85 1
622.4760 0.7108 578.0127 107 132 85 1
622.6271 0.7335 581.2735 107 132 85 1
623.5720 0.7876 583.8719 107 132 85 1
622.9356 0.7541 587.4796 107 132 85 1
622.9285 0.7062 594.9531 107 132 85 1
622.7622 0.2260 615.5593 174 174 166 3
623.1045 0.0702 620.0045 47 50 54 2
623.0038 -0.0226 622.6496 47 50 54 2
622.9034 -0.1598 626.5811 174 174 166 3
623.3998 -0.3033 630.4665 107 132 85 1
623.2638 -0.4894 636.6042 107 132 85 1
622.8564 -0.5903 640.9729 107 132 85 1
623.5562 -0.6701 643.8842 107 132 85 1
622.7740 -0.7893 661.0509 107 132 85 1
623.1121 -0.7400 671.5068 107 132 85 1
623.3296 -0.7127 675.4940 174 174 166 3
622.4926 -0.6487 679.4193 47 50 54 2
623.6400 -0.6674 682.1902 47 50 54 2
622.5135 -0.5919 686.3413 174 174 166 3
622.6161 -0.5542 693.6815 107 132 85 1
623.1089 -0.5566 700.6664 107 132 85 1
622.4398 -0.5198 703.5404 107 132 85 1
623.3965 -0.5480 711.1225 107 132 85 1
622.8583 -0.4961 717.7979 107 132 85 1
623.4711 -0.4953 720.4737 107 132 85 1
622.7824 -0.4407 723.8915 107 132 85 1
623.5807 -0.3269 731.7770 107 132 85 1
622.6552 -0.1757 738.1546 107 132 85 1
623.4582 -0.0560 742.1549 107 132 85 1
623.3770 0.0560 745.7468 107 132 85 1
623.0705 0.1462 748.7008 107 132 85 1
622.7463 0.2865 753.1932 107 132 85 1
622.7181 0.3847 756.1972 174 174 166 3
622.3777 0.4776 759.5028 47 50 54 2
623.5442 0.6389 763.3494 47 50 54 2
622.7495 0.7094 767.1745 174 174 166 3
622.4629 0.7530 769.5530 107 132 85 1
622.5737 0.8260 773.0147 107 132 85 1
623.0934 0.6580 808.6323 107 132 85 1
622.3656 0.5776 811.7557 107 132 85 1
623.3578 0.4904 818.6451 107 132 85 1
623.0237 0.4177 822.7718 107 132 85 1
623.1798 0.3798 826.0930 107 132 85 1
622.6939 0.2662 836.0121 174 174 166 3
622.4103 0.2283 840.0062 47 50 54 2
623.3743 0.2295 843.5601 47 50 54 2
623.1467 0.1930 847.4007 174 174 166 3
623.6804 0.1777 850.1127 107 132 85 1
622.6951 0.1230 853.9616 107 132 85 1
623.4531 0.0788 857.8081 107 132 85 1
623.6243 0.0294 860.8397 107 132 85 1
622.7246 -0.0362 864.7642 107 132 85 1
622.5444 -0.2477 874.4073 107 132 85 1
622.7791 -0.3775 878.9941 107 132 85 1
623.2975 -0.6816 889.0782 107 132 85 1
623.6681 -0.7793 892.1391 107 132 85 1
622.9700 -0.9024 899.6731 107 132 85 1
622.5713 -0.9300 902.8961 107 132 85 1
622.6743 -0.9902 910.4760 174 174 166 3
622.4342 -0.9790 912.8930 107 132 85 1
622.6942 -0.9706 916.6861 107 132 85 1
623.5750 -0.9074 923.7361 107 132 85 1
623.1785 -0.8236 927.3603 107 132 85 1
622.9419 -0.5667 937.5083 107 132 85 1
622.9558 -0.4513 941.8332 107 132 85 1
622.6527 -0.3552 945.2765 107 132 85 1
623.3448 -0.2976 948.1091 107 132 85 1
622.9257 -0.1324 955.1955 107 132 85 1
622.4119 -0.0457 959.4770 107 132 85 1
623.6880 0.1078 973.6363 107 132 85 1
622.4826 0.1910 983.3186 47 50 54 2
623.3756 0.2227 986.4308 47 50 54 2
622.4490 0.2547 990.7102 47 50 54 2
622.3536 0.2873 993.8899 107 132 85 1
623.3333 0.3536 997.0690 107 132 85 1
626.3869 -0.8399 0.0771 47 50 54 2
626.6395 -0.8527 2.9357 47 50 54 2
626.3022 -0.8283 6.5604 47 50 54 2
626.0590 -0.8005 9.8079 47 50 54 2
626.6115 -0.7838 13.7142 47 50 54 2
625.8750 -0.7119 17.1849 47 50 54 2
626.4384 -0.6433 21.5513 47 50 54 2
626.7914 -0.5633 25.0057 47 50 54 2
626.2129 -0.4630 28.2961 47 50 54 2
625.9496 -0.3615 31.4897 47 50 54 2
626.0910 -0.2533 34.6377 47 50 54 2
626.5106 -0.1025 38.5930 47 50 54 2
627.1054 0.0272 41.6726 47 50 54 2
626.4486 0.1761 45.7135 47 50 54 2
627.0977 0.3294 49.2849 47 50 54 2
626.9532 0.4688 53.1403 47 50 54 2
626.7646 0.5451 55.4965 47 50 54 2
626.2054 0.6498 59.3459 47 50 54 2
627.1467 0.7574 62.3613 47 50 54 2
627.1222 0.8508 66.6077 47 50 54 2
627.1044 0.9110 70.2978 47 50 54 2
626.0888 0.9205 73.4327 47 50 54 2
626.4836 0.9577 77.4560 47 50 54 2
626.1263 0.9546 81.0873 47 50 54 2
626.5162 0.9572 84.4395 47 50 54 2
626.3473 0.9402 86.9498 47 50 54 2
626.0875 0.9084 90.3315 47 50 54 2
626.4939 0.8831 94.2562 107 132 85 1
626.0270 0.7455 105.6006 107 132 85 1
626.7837 0.6595 119.5545 47 50 54 2
626.4431 0.6244 122.9582 47 50 54 2
627.0555 0.6355 125.5112 47 50 54 2
626.2017 0.5748 129.6741 174 174 166 3
626.8153 0.5754 133.0665 107 132 85 1
626.4605 0.5299 136.8676 107 132 85 1
627.0605 0.5119 140.1921 107 132 85 1
626.0848 -0.1597 167.3548 107 132 85 1
626.8149 -0.3467 172.0110 47 50 54 2
625.9501 -0.4139 174.6255 47 50 54 2
625.9355 -0.5558 178.6802 47 50 54 2
626.7927 -0.6850 181.5150 47 50 54 2
627.0200 -0.8002 184.8541 47 50 54 2
626.2355 -0.8863 189.1049 47 50 54 2
627.1378 -1.0126 193.0873 47 50 54 2
626.6601 -1.0477 196.2182 47 50 54 2
626.8297 -1.0882 198.8994 47 50 54 2
627.1525 -1.1260 202.3297 47 50 54 2
627.1359 -1.1321 205.9116 47 50 54 2
625.9762 -1.0766 210.3691 47 50 54 2
626.9016 -1.0683 214.1914 47 50 54 2
626.0150 -1.0080 216.7720 47 50 54 2
626.2147 -0.9426 221.0441 47 50 54 2
626.6220 -0.9087 223.3829 47 50 54 2
626.1427 -0.8199 227.0463 47 50 54 2
626.5137 -0.7559 230.4465 47 50 54 2
626.8808 -0.6666 235.0001 47 50 54 2
626.1809 -0.5765 238.3486 47 50 54 2
626.2356 -0.5047 242.0254 47 50 54 2
626.2904 -0.4419 245.5419 47 50 54 2
626.0104 -0.3809 248.7082 47 50 54 2
626.4059 -0.3528 251.3272 47 50 54 2
626.0494 -0.2827 255.6869 47 50 54 2
626.1285 -0.2502 258.4967 47 50 54 2
625.8051 -0.1938 262.6636 47 50 54 2
626.5241 -0.1731 265.8789 47 50 54 2
626.0144 -0.1262 268.9859 47 50 54 2
626.3353 -0.0711 273.5481 47 50 54 2
626.4819 -0.0233 276.7622 47 50 54 2
626.3947 0.0288 279.7851 47 50 54 2
626.5307 0.0902 282.9354 47 50 54 2
625.8088 0.1606 286.6298 47 50 54 2
626.8538 0.2732 290.5018 174 174 166 3
626.1272 0.3625 294.5307 47 50 54 2
626.5101 0.4606 297.5636 47 50 54 2
626.8255 0.5571 300.4220 47 50 54 2
625.9823 0.6425 304.5012 47 50 54 2
625.9608 0.7434 308.0698 174 174 166 3
626.4262 0.8419 310.8304 174 174 166 3
626.4301 0.9571 315.4375 174 174 166 3
626.2577 1.0242 319.0662 174 174 166 3
626.3445 1.0851 322.4910 174 174 166 3
626.8350 1.1431 325.4172 174 174 166 3
626.0878 1.1334 329.0226 174 174 166 3
625.9486 1.1315 332.8849 174 174 166 3
627.0139 1.1551 336.1748 107 132 85 1
626.9079 1.1177 339.2423 107 132 85 1
626.5995 0.9010 349.5789 107 132 85 1
626.1472 0.6864 356.8219 107 132 85 1
625.8824 0.3649 367.1901 47 50 54 2
626.9950 0.2614 371.3293 47 50 54 2
625.8181 0.1755 373.9053 47 50 54 2
626.7428 0.0940 377.7097 107 132 85 1
626.7228 0.0007 381.9855 107 132 85 1
626.4450 -0.1092 387.9298 107 132 85 1
626.6139 -0.2527 398.8798 107 132 85 1
626.3718 -0.2858 401.8114 107 132 85 1
627.1805 -0.3888 409.8528 107 132 85 1
626.7647 -0.4341 413.5501 107 132 85 1
626.3535 -0.5207 419.7956 107 132 85 1
626.8210 -0.8879 437.7324 174 174 166 3
626.0746 -0.9177 441.5483 47 50 54 2
627.0900 -1.0253 444.7519 47 50 54 2
626.0325 -1.0044 447.4343 174 174 166 3
626.0464 -1.0651 454.3178 107 132 85 1
626.5205 -1.0305 466.0101 107 132 85 1
626.2151 -0.7121 479.2483 107 132 85 1
626.4382 -0.6009 482.7057 107 132 85 1
627.1673 -0.4792 486.2650 107 132 85 1
626.4950 -0.3548 489.5245 107 132 85 1
625.8033 -0.2186 493.1763 107 132 85 1
626.6841 -0.0738 497.1682 107 132 85 1
626.7937 0.0590 501.0119 107 132 85 1
626.5461 0.1513 503.9206 107 132 85 1
626.8761 0.3559 511.4240 107 132 85 1
626.5271 0.5422 522.1247 174 174 166 3
626.9617 0.5776 524.9862 47 50 54 2
626.8854 0.6096 528.6669 47 50 54 2
626.9825 0.6299 531.3595 174 174 166 3
625.8784 0.6341 535.3617 107 132 85 1
627.1391 0.6903 541.9990 107 132 85 1
626.4157 0.6902 545.9405 107 132 85 1
627.1772 0.7364 549.5415 107 132 85 1
626.6449 0.7429 553.3028 107 132 85 1
626.0119 0.7622 559.4039 107 132 85 1
625.9826 0.8799 574.1578 107 132 85 1
627.0913 0.9539 584.4889 107 132 85 1
626.9609 0.9246 588.2451 107 132 85 1
626.6733 0.8348 594.4683 107 132 85 1
626.8952 0.7605 598.4721 107 132 85 1
626.5835 0.6564 602.3513 107 132 85 1
626.7251 0.2123 615.3275 174 174 166 3
626.0465 0.0408 619.8577 47 50 54 2
626.3311 -0.0868 623.0152 47 50 54 2
627.1260 -0.2342 626.4831 174 174 166 3
626.1379 -0.4525 633.1784 107 132 85 1
626.0295 -0.5668 637.0307 107 132 85 1
626.2160 -0.6601 640.4681 107 132 85 1
625.9447 -0.8177 672.4951 107 132 85 1
625.8484 -0.7918 675.8867 174 174 166 3
625.8302 -0.7672 679.4712 47 50 54 2
626.5878 -0.7779 682.3874 47 50 54 2
626.5704 -0.7616 685.6263 47 50 54 2
626.8126 -0.7483 692.6467 107 132 85 1
626.1914 -0.7111 696.3562 107 132 85 1
626.3513 -0.7043 702.9588 107 132 85 1
626.3165 -0.6490 714.1141 107 132 85 1
626.9678 -0.5879 720.9793 107 132 85 1
626.2795 -0.5187 724.0853 107 132 85 1
626.6297 -0.2499 735.0933 107 132 85 1
626.9185 -0.1423 738.3381 107 132 85 1
627.0895 -0.0064 742.0716 107 132 85 1
625.8365 0.3614 752.6133 107 132 85 1
625.8704 0.6231 760.0018 47 50 54 2
626.7783 0.7507 763.0120 47 50 54 2
627.1676 0.8703 766.8126 47 50 54 2
625.8983 0.9071 770.4187 107 132 85 1
626.8902 1.0398 776.7206 107 132 85 1
626.3876 0.7019 811.8667 107 132 85 1
625.8736 0.5740 818.7000 107 132 85 1
626.0857 0.5195 823.0599 107 132 85 1
626.6691 0.3845 837.0499 174 174 166 3
626.0684 0.3292 840.6994 47 50 54 2
626.4145 0.3140 842.9908 47 50 54 2
626.0833 0.2543 847.3500 174 174 166 3
627.1375 0.1003 857.1055 107 132 85 1
626.3929 -0.0738 864.4941 107 132 85 1
626.9712 -0.4043 874.9738 107 132 85 1
627.1171 -0.5205 878.2953 107 132 85 1
626.9627 -1.0937 899.5247 107 132 85 1
626.9043 -1.1624 906.8042 107 132 85 1
626.8155 -1.1496 913.2024 107 132 85 1
626.4399 -0.9855 923.9505 107 132 85 1
627.1074 -0.7446 934.2789 107 132 85 1
626.9694 -0.5414 941.5192 107 132 85 1
627.0759 -0.2922 951.4951 107 132 85 1
627.1103 -0.1441 958.8479 107 132 85 1
626.0220 -0.0518 963.1700 107 132 85 1
626.3711 -0.0115 966.3776 107 132 85 1
625.9713 0.0268 968.8005 107 132 85 1
626.3970 0.1097 976.0178 107 132 85 1
626.2503 0.1613 980.1490 107 132 85 1
626.7476 0.2135 983.9325 47 50 54 2
626.0237 0.2468 986.5541 47 50 54 2
626.1398 0.3033 990.0921 47 50 54 2
629.7407 -1.0029 0.0692 174 174 166 3
630.2423 -1.0183 2.9304 174 174 166 3
630.5736 -1.0025 7.1520 174 174 166 3
630.5945 -0.9523 11.1839 174 174 166 3
629.3991 -0.8588 14.5594 47 50 54 2
629.5782 -0.7870 18.1954 47 50 54 2
630.0452 -0.7181 21.1587 174 174 166 3
630.2398 -0.6393 23.8170 174 174 166 3
629.8318 -0.4814 28.2890 47 50 54 2
630.6262 -0.3674 31.2317 174 174 166 3
630.0735 -0.2392 34.3961 174 174 166 3
630.3196 -0.0526 38.6881 174 174 166 3
630.3885 0.1035 42.2322 174 174 166 3
629.8305 0.2069 44.8562 47 50 54 2
629.8405 0.4004 49.5395 47 50 54 2
629.8917 0.5388 53.1307 47 50 54 2
630.3094 0.6541 56.1650 47 50 54 2
629.3818 0.7266 59.1651 47 50 54 2
630.6750 0.8548 62.8682 47 50 54 2
629.3897 0.8975 66.1313 47 50 54 2
630.4231 0.9892 70.4001 47 50 54 2
630.6598 1.0293 73.6735 47 50 54 2
629.6763 1.0326 77.5017 47 50 54 2
629.7658 1.0407 80.7380 47 50 54 2
629.9817 1.0423 83.4820 47 50 54 2
629.3367 1.0120 87.4219 47 50 54 2
629.3699 0.9883 91.1661 47 50 54 2
629.6917 0.9755 93.8864 47 50 54 2
629.3963 0.9369 97.4316 107 132 85 1
629.8992 0.9123 102.0981 107 132 85 1
630.6530 0.9188 104.5362 107 132 85 1
629.7160 0.8597 107.9136 107 132 85 1
630.6781 0.8723 111.5161 107 132 85 1
630.2010 0.8060 119.3312 174 174 166 3
629.6959 0.7680 122.1050 47 50 54 2
629.8602 0.7490 126.0076 47 50 54 2
629.6314 0.7183 128.8188 47 50 54 2
630.2544 0.6100 139.4954 107 132 85 1
629.9672 0.5181 143.9486 107 132 85 1
629.7310 0.4456 146.9687 107 132 85 1
629.9369 0.3733 149.8406 107 132 85 1
629.3218 0.2400 154.2788 107 132 85 1
630.1687 0.1369 157.2652 107 132 85 1
630.0081 0.0056 160.8672 47 50 54 2
629.5872 -0.1430 164.8751 47 50 54 2
629.3884 -0.2574 167.8618 47 50 54 2
630.1990 -0.4414 171.8528 47 50 54 2
629.8065 -0.5619 175.1552 47 50 54 2
630.5143 -0.7164 178.5532 47 50 54 2
629.5643 -0.8050 181.9676 47 50 54 2
629.6616 -0.9351 185.9645 47 50 54 2
629.3205 -0.9960 188.6435 47 50 54 2
630.5123 -1.1126 191.8691 174 174 166 3
629.3805 -1.1404 195.6950 47 50 54 2
629.6050 -1.1848 198.8185 47 50 54 2
629.9056 -1.2182 203.3563 47 50 54 2
630.4408 -1.2303 206.3509 174 174 166 3
630.2877 -1.2062 209.8042 174 174 166 3
629.9134 -1.1601 213.3539 174 174 166 3
629.7358 -1.0936 217.6449 47 50 54 2
629.4154 -1.0426 220.1313 47 50 54 2
630.5464 -0.9851 224.5113 174 174 166 3
630.0319 -0.9073 227.6614 174 174 166 3
629.9714 -0.8471 230.4351 174 174 166 3
630.2140 -0.7785 234.0129 174 174 166 3
630.6102 -0.7153 237.6997 174 174 166 3
630.6913 -0.6374 241.9530 174 174 166 3
630.4708 -0.5781 244.9431 174 174 166 3
629.5582 -0.4998 247.9676 174 174 166 3
630.5052 -0.4559 252.6563 174 174 166 3
629.6931 -0.3840 255.9215 174 174 166 3
630.3095 -0.3553 259.0842 174 174 166 3
629.5521 -0.2760 263.1831 174 174 166 3
629.3133 -0.2333 265.6849 174 174 166 3
629.9419 -0.1902 269.0122 174 174 166 3
630.5523 -0.1324 272.4496 107 132 85 1
629.8337 -0.0432 276.4000 107 132 85 1
629.3799 0.1167 283.0567 174 174 166 3
629.4441 0.4621 294.5153 174 174 166 3
630.3035 0.6115 298.0764 47 50 54 2
629.6536 0.6777 300.7214 47 50 54 2
630.5326 0.8196 303.8691 47 50 54 2
629.4672 1.2748 329.4950 107 132 85 1
629.9208 1.2800 333.0713 107 132 85 1
630.2036 0.9584 350.2323 107 132 85 1
629.8818 0.8635 353.2222 107 132 85 1
629.4701 0.7323 357.2059 107 132 85 1
630.4832 0.6541 360.1677 107 132 85 1
630.2430 0.5173 364.3710 174 174 166 3
630.5512 0.4086 368.1020 47 50 54 2
630.3532 0.3309 370.6804 47 50 54 2
630.1496 0.2178 374.7561 174 174 166 3
630.4760 0.1437 377.9891 107 132 85 1
629.7574 0.0490 381.7353 107 132 85 1
630.6162 -0.0098 385.3112 107 132 85 1
630.5002 -0.0671 388.3239 107 132 85 1
629.9375 -0.1928 395.5806 107 132 85 1
630.1727 -0.2417 398.7834 107 132 85 1
630.2328 -0.3025 402.5634 107 132 85 1
629.3002 -0.4152 409.7196 107 132 85 1
629.5904 -0.6328 420.3682 107 132 85 1
629.4611 -0.7783 426.8923 107 132 85 1
630.2919 -0.9847 434.0078 107 132 85 1
629.6432 -1.0255 437.3002 174 174 166 3
629.9242 -1.1080 440.7369 47 50 54 2
630.6074 -1.2062 444.5944 47 50 54 2
629.3965 -1.1808 447.3546 174 174 166 3
629.7847 -1.2305 450.8647 107 132 85 1
630.4436 -1.2577 458.1976 107 132 85 1
629.6884 -0.9784 472.4367 107 132 85 1
629.3477 -0.7425 479.5858 107 132 85 1
630.4895 -0.6089 483.4389 107 132 85 1
630.4430 -0.0553 497.6454 107 132 85 1
629.5187 0.0574 500.8480 107 132 85 1
630.3071 0.1717 504.3736 107 132 85 1
629.6087 0.5599 522.0831 174 174 166 3
630.3138 0.6036 525.1662 47 50 54 2
629.9211 0.6428 528.9515 47 50 54 2
629.6113 0.6643 531.5556 174 174 166 3
630.2288 0.7437 539.4298 107 132 85 1
630.4656 0.8091 545.5270 107 132 85 1
629.5774 0.8177 549.1836 107 132 85 1
629.6151 0.9781 563.5155 107 132 85 1
629.9661 1.0685 571.1513 107 132 85 1
630.1879 1.1080 577.4748 107 132 85 1
629.8032 1.0674 584.8339 107 132 85 1
630.2676 1.0592 587.3791 107 132 85 1
629.8081 0.8324 598.0095 107 132 85 1
630.2006 0.2937 612.8684 107 132 85 1
629.6331 0.1407 616.5321 174 174 166 3
629.6068 0.0081 619.6367 47 50 54 2
630.5443 -0.1573 623.2571 47 50 54 2
630.3422 -0.3111 627.1146 174 174 166 3
630.6284 -0.8068 643.4289 107 132 85 1
630.0730 -0.9498 668.3891 107 132 85 1
630.3682 -0.9486 671.7127 107 132 85 1
629.5213 -0.9002 678.7841 47 50 54 2
630.0810 -0.9107 682.4098 47 50 54 2
630.6115 -0.9251 686.5880 47 50 54 2
630.4806 -0.9171 688.9734 174 174 166 3
630.1697 -0.8999 692.4370 107 132 85 1
630.1948 -0.8303 710.2707 107 132 85 1
629.9089 -0.7241 717.5627 107 132 85 1
629.4227 -0.5775 724.1195 107 132 85 1
630.0816 -0.4755 728.1454 107 132 85 1
630.0366 -0.3642 731.5786 107 132 85 1
630.2288 -0.2350 735.1476 107 132 85 1
630.3179 -0.0946 738.6966 107 132 85 1
630.2283 0.2073 745.9122 107 132 85 1
630.2689 0.3625 749.5355 107 132 85 1
630.4430 0.7467 759.1868 174 174 166 3
629.6151 0.8487 763.0860 47 50 54 2
630.1937 0.9445 765.8258 47 50 54 2
629.8109 1.0168 769.3641 174 174 166 3
629.3478 1.0719 773.1708 107 132 85 1
629.6031 1.1253 776.9678 107 132 85 1
629.5284 1.1430 779.9139 107 132 85 1
630.1125 0.8754 808.3011 107 132 85 1
630.3879 0.8332 811.5123 107 132 85 1
629.5381 0.7445 815.5566 107 132 85 1
629.8603 0.7097 818.7604 107 132 85 1
629.5414 0.6515 822.2959 107 132 85 1
630.1892 0.6230 826.4676 107 132 85 1
630.1606 0.5896 829.1915 107 132 85 1
629.8374 0.5344 832.9134 107 132 85 1
629.9343 0.5000 835.9836 107 132 85 1
630.0536 0.4551 839.6239 174 174 166 3
629.9474 0.3866 843.9445 47 50 54 2
630.0002 0.3416 846.5917 47 50 54 2
629.3785 0.2584 850.3861 174 174 166 3
630.1277 0.1059 856.9364 107 132 85 1
629.6880 -0.2469 868.2070 107 132 85 1
630.5871 -0.5421 875.4955 107 132 85 1
630.6877 -0.6802 879.0500 107 132 85 1
629.7596 -1.1423 895.4543 107 132 85 1
629.3970 -1.2403 903.2630 107 132 85 1
630.3134 -1.2879 905.9357 107 132 85 1
629.5781 -1.2595 910.2591 174 174 166 3
630.2660 -1.0656 924.5437 107 132 85 1
629.6470 -0.9944 926.9250 107 132 85 1
629.9480 -0.7954 934.5810 107 132 85 1
630.1735 -0.4257 948.6166 107 132 85 1
629.9912 -0.1939 959.3895 107 132 85 1
630.3802 -0.1403 962.8305 107 132 85 1
629.3554 0.0500 973.5821 107 132 85 1
629.6447 0.2117 983.0535 47 50 54 2
629.9452 0.3063 987.4959 47 50 54 2
630.2392 0.3770 990.3438 47 50 54 2
629.3054 0.4635 994.6690 107 132 85 1
634.0387 -1.1900 0.5718 107 132 85 1
633.7137 -1.0626 10.3040 107 132 85 1
633.9372 -0.9705 14.6245 107 132 85 1
634.0245 -0.9057 16.9972 107 132 85 1
633.7236 -0.6338 24.6933 107 132 85 1
633.5880 -0.5230 27.4013 107 132 85 1
634.0045 -0.1569 35.4844 107 132 85 1
634.1135 -0.0263 38.2228 107 132 85 1
633.4228 0.1169 41.4833 107 132 85 1
633.5287 0.4549 49.1067 107 132 85 1
633.1721 0.7159 56.2759 174 174 166 3
634.0503 0.8256 59.3404 47 50 54 2
632.8955 0.8878 62.4406 47 50 54 2
633.2397 0.9743 66.1909 174 174 166 3
633.9637 1.1116 77.6986 107 132 85 1
633.3278 1.1081 80.1172 174 174 166 3
632.8508 1.1001 83.4733 174 174 166 3
634.1993 1.1179 87.1765 107 132 85 1
633.9896 1.0981 91.4511 107 132 85 1
633.0684 1.0626 94.0790 174 174 166 3
633.1576 1.0393 98.5649 174 174 166 3
633.3405 1.0298 101.2134 174 174 166 3
633.6912 1.0205 105.2312 174 174 166 3
632.8697 0.9197 118.9226 174 174 166 3
633.2889 0.9155 122.2671 47 50 54 2
633.7689 0.9001 126.4085 47 50 54 2
633.2540 0.8521 129.1623 47 50 54 2
633.6172 0.8056 133.5179 107 132 85 1
634.1184 0.5889 143.8727 47 50 54 2
634.0581 0.4743 147.5593 47 50 54 2
633.7723 0.3851 150.1197 174 174 166 3
633.7886 0.2168 154.5752 107 132 85 1
633.0915 0.0814 158.0311 174 174 166 3
633.3937 -0.0534 161.0972 174 174 166 3
633.3137 -0.1788 163.9641 174 174 166 3
634.1681 -0.3557 167.4550 107 132 85 1
632.9111 -0.4967 171.3324 174 174 166 3
634.0994 -0.6672 174.5048 107 132 85 1
632.8836 -0.9195 181.9973 174 174 166 3
633.3479 -1.1409 189.0493 107 132 85 1
633.2199 -1.3057 203.3318 107 132 85 1
633.4638 -1.3036 206.4615 107 132 85 1
633.0356 -1.2257 213.8405 47 50 54 2
632.8881 -1.1836 216.5235 47 50 54 2
633.1580 -1.1129 220.9938 47 50 54 2
633.1627 -1.0427 224.6970 107 132 85 1
633.4865 -1.0050 226.9986 107 132 85 1
633.7346 -0.8570 234.9035 107 132 85 1
633.1318 -0.6548 245.2415 107 132 85 1
633.3238 -0.5453 252.3590 107 132 85 1
633.8005 -0.5151 255.0760 107 132 85 1
633.8084 -0.2251 269.8582 107 132 85 1
633.5578 -0.1504 272.7420 107 132 85 1
633.1922 0.1836 283.8327 107 132 85 1
633.4451 0.3046 287.1330 107 132 85 1
633.5867 0.4116 289.9173 107 132 85 1
634.1104 0.5800 293.8799 174 174 166 3
634.0211 0.7242 297.6079 47 50 54 2
634.0016 0.8378 300.5718 47 50 54 2
632.8771 0.9584 305.1102 174 174 166 3
633.5922 1.0615 307.3302 107 132 85 1
633.7802 1.1796 310.9666 107 132 85 1
633.9322 1.3566 318.6035 107 132 85 1
634.1486 1.4105 322.1936 107 132 85 1
633.4529 1.4095 325.5841 107 132 85 1
632.9672 1.3422 335.7529 107 132 85 1
632.9678 1.0991 347.0598 107 132 85 1
633.6396 0.9315 353.0418 107 132 85 1
633.7323 0.5673 364.5604 174 174 166 3
632.8913 0.4836 366.8656 47 50 54 2
633.3831 0.3917 370.3238 47 50 54 2
634.0473 0.2774 375.0428 174 174 166 3
632.9234 0.1698 378.6329 107 132 85 1
632.8160 0.0893 382.1397 107 132 85 1
634.0368 0.0542 384.7340 107 132 85 1
633.2759 -0.1620 395.1508 107 132 85 1
633.9163 -0.3040 402.1882 107 132 85 1
633.5878 -0.3892 406.0659 107 132 85 1
633.1631 -1.0276 430.4177 107 132 85 1
633.2265 -1.2110 437.7775 174 174 166 3
634.0414 -1.3054 440.6105 47 50 54 2
633.6876 -1.3530 444.7033 47 50 54 2
632.9037 -1.3561 448.4487 174 174 166 3
633.4608 -1.3925 451.1601 107 132 85 1
633.4033 -1.3595 458.4295 107 132 85 1
633.0686 -1.2983 462.1026 107 132 85 1
633.5584 -1.0645 471.8310 107 132 85 1
633.7123 -0.9146 476.1925 107 132 85 1
633.4246 -0.2207 493.4274 107 132 85 1
633.6138 -0.0883 496.9019 107 132 85 1
634.0897 0.1477 503.8235 107 132 85 1
633.5779 0.2512 507.2527 107 132 85 1
633.1806 0.4179 513.9009 107 132 85 1
633.9567 0.5573 521.1912 174 174 166 3
632.9952 0.6248 525.6976 47 50 54 2
634.0820 0.6693 528.3846 47 50 54 2
633.9444 0.7254 532.4673 174 174 166 3
633.2415 0.8922 545.5533 107 132 85 1
632.9096 1.1364 563.3568 107 132 85 1
633.9350 1.2286 567.1564 107 132 85 1
634.1562 1.1710 588.1222 107 132 85 1
633.5012 0.9661 595.6847 107 132 85 1
633.3665 0.7604 601.5974 107 132 85 1
633.0047 0.2773 612.9029 107 132 85 1
633.0599 0.1183 616.3694 174 174 166 3
633.4284 -0.0523 620.0466 47 50 54 2
632.8627 -0.1909 623.3508 47 50 54 2
632.8426 -0.3413 626.9928 174 174 166 3
633.5516 -0.6755 636.3949 107 132 85 1
632.9683 -0.9034 647.2178 107 132 85 1
633.7311 -1.0399 671.7053 107 132 85 1
633.3491 -1.0306 675.6858 107 132 85 1
633.5994 -1.0409 679.5817 47 50 54 2
632.9039 -1.0174 682.3876 47 50 54 2
633.5282 -1.0438 685.5933 47 50 54 2
633.5214 -1.0470 690.0542 107 132 85 1
633.7322 -0.9035 713.6150 107 132 85 1
633.2162 -0.3911 730.8917 107 132 85 1
633.2918 -0.0746 738.3293 107 132 85 1
633.0294 0.5811 753.0163 107 132 85 1
633.0913 0.8347 759.5376 174 174 166 3
633.0842 0.9464 762.9805 47 50 54 2
633.5717 1.0482 766.2253 47 50 54 2
633.4077 1.1289 770.1016 174 174 166 3
634.0453 1.1949 773.3382 107 132 85 1
634.0721 1.2332 777.0046 107 132 85 1
633.3997 1.2360 780.1885 107 132 85 1
633.0660 0.9118 811.8632 107 132 85 1
633.0674 0.8635 815.4413 107 132 85 1
633.4341 0.7791 823.1430 107 132 85 1
633.9917 0.7215 829.2697 107 132 85 1
633.3532 0.6534 832.7104 107 132 85 1
633.8048 0.5370 840.5844 174 174 166 3
633.3599 0.4656 843.6222 47 50 54 2
634.0269 0.4012 846.8881 47 50 54 2
633.4464 0.2868 850.9163 174 174 166 3
633.0174 0.1907 854.1044 107 132 85 1
634.1539 0.0704 857.6566 107 132 85 1
633.1382 -0.4789 871.9439 107 132 85 1
633.2240 -1.2975 896.5814 107 132 85 1
632.9307 -1.3633 903.2212 107 132 85 1
632.8751 -1.3696 906.8785 107 132 85 1
632.8133 -1.3554 910.1572 174 174 166 3
633.0389 -1.3300 913.5061 107 132 85 1
633.9509 -1.1393 924.5706 107 132 85 1
633.5091 -0.5860 945.1087 107 132 85 1
633.6693 -0.5213 947.9129 107 132 85 1
633.1364 -0.0075 972.5724 107 132 85 1
633.8443 0.1561 980.0361 107 132 85 1
633.3915 0.2322 983.0967 47 50 54 2
633.9795 0.3503 987.1619 47 50 54 2
633.7555 0.4484 990.5455 47 50 54 2
634.1285 0.5848 994.5401 107 132 85 1
633.3644 0.6394 996.8627 107 132 85 1
637.2615 -1.3168 0.0000 107 132 85 1
637.3559 -1.2807 3.7088 107 132 85 1
636.7759 -1.1472 10.0612 107 132 85 1
637.1610 -1.0604 13.6122 107 132 85 1
637.1628 -0.9378 17.3632 107 132 85 1
636.4031 -0.6663 24.1240 107 132 85 1
637.1343 -0.4758 28.3184 107 132 85 1
636.7924 -0.3310 31.3695 107 132 85 1
637.5618 0.1735 41.4647 107 132 85 1
637.1547 0.3366 45.0690 107 132 85 1
637.2746 0.6685 53.0761 107 132 85 1
637.2455 0.7911 56.6844 174 174 166 3
636.6188 0.8676 59.5177 47 50 54 2
636.9625 0.9658 63.2889 47 50 54 2
637.3152 1.0432 67.0529 174 174 166 3
636.9414 1.1471 76.7651 107 132 85 1
636.6589 1.1518 93.9928 107 132 85 1
637.2818 1.1444 105.1857 107 132 85 1
636.3006 1.0336 122.2501 107 132 85 1
636.5538 1.0131 125.3927 107 132 85 1
637.2904 0.9090 133.5958 107 132 85 1
637.2397 0.7443 140.1477 174 174 166 3
637.0351 0.6367 143.4922 47 50 54 2
636.8536 0.5128 146.9536 47 50 54 2
636.5548 0.3605 150.8138 174 174 166 3
637.6551 0.2176 153.9821 107 132 85 1
636.8719 -0.0963 160.8130 107 132 85 1
637.5194 -1.0544 182.0986 107 132 85 1
636.9175 -1.1567 185.9139 107 132 85 1
636.6070 -1.2959 192.5387 107 132 85 1
636.7747 -1.3681 198.8051 107 132 85 1
637.3298 -1.3873 202.9717 107 132 85 1
636.4449 -1.3406 209.3261 107 132 85 1
637.2571 -1.3033 213.8876 47 50 54 2
637.1042 -1.2532 217.2494 47 50 54 2
636.5448 -1.1973 220.1074 47 50 54 2
636.6519 -1.1245 224.4196 107 132 85 1
636.7451 -1.0693 227.6088 107 132 85 1
636.4355 -0.8163 241.6118 107 132 85 1
637.4894 -0.6640 252.5533 107 132 85 1
636.9683 -0.5212 259.2391 107 132 85 1
636.7741 -0.3574 266.1360 107 132 85 1
636.3700 -0.0668 275.8215 107 132 85 1
636.6900 0.0971 280.3465 107 132 85 1
636.6102 0.2072 283.2034 107 132 85 1
636.8248 0.3620 286.8971 107 132 85 1
636.7559 0.4949 290.0683 107 132 85 1
636.9322 0.6601 293.8103 174 174 166 3
637.5741 0.8323 297.3839 47 50 54 2
637.2735 0.9844 301.3499 47 50 54 2
636.6265 1.0912 304.7972 174 174 166 3
637.6631 1.3554 312.1690 107 132 85 1
636.8959 1.3846 314.5077 107 132 85 1
636.6887 1.4872 321.7132 107 132 85 1
637.6180 1.5289 325.3851 107 132 85 1
637.5391 1.5180 328.9008 107 132 85 1
636.3126 1.3338 340.0205 107 132 85 1
637.5032 1.1696 347.0313 107 132 85 1
636.4656 0.9786 352.8674 107 132 85 1
637.0526 0.6505 363.6364 174 174 166 3
637.0810 0.5466 367.1799 47 50 54 2
636.7827 0.4454 370.5947 47 50 54 2
637.2523 0.3521 374.4689 174 174 166 3
637.3853 0.0994 385.1519 107 132 85 1
636.9639 0.0039 389.0859 107 132 85 1
637.0520 -0.0493 391.4693 107 132 85 1
636.7106 -0.5207 409.6091 107 132 85 1
637.0630 -0.8549 419.8281 107 132 85 1
637.4198 -1.3089 434.1187 107 132 85 1
636.8369 -1.3736 437.8849 174 174 166 3
636.5695 -1.4290 441.4226 47 50 54 2
637.3450 -1.4985 444.2520 47 50 54 2
637.5482 -1.5334 447.6892 174 174 166 3
637.3809 -1.5307 452.0762 107 132 85 1
636.5472 -1.4882 455.0445 107 132 85 1
636.9500 0.2492 507.7538 107 132 85 1
637.1273 0.5630 521.5343 174 174 166 3
637.6651 0.6200 524.5295 47 50 54 2
636.6470 0.6820 528.1683 47 50 54 2
637.2030 0.7606 532.3754 174 174 166 3
636.9341 0.8706 538.6568 107 132 85 1
636.9541 1.0200 546.4819 107 132 85 1
637.6284 1.0914 548.9836 107 132 85 1
636.8894 1.1964 555.8189 107 132 85 1
636.9155 1.3914 570.9924 107 132 85 1
636.4698 1.3819 574.0831 107 132 85 1
636.7751 1.3861 577.6192 107 132 85 1
637.5213 1.3296 584.5343 107 132 85 1
637.3149 1.1473 591.8208 107 132 85 1
636.4850 1.0084 595.6996 107 132 85 1
636.3428 0.7447 602.3813 107 132 85 1
637.5284 0.4496 608.7801 107 132 85 1
637.1965 0.0990 616.0616 174 174 166 3
637.6424 -0.0729 619.6338 47 50 54 2
637.2972 -0.2242 623.0642 47 50 54 2
637.2107 -0.3667 626.4763 174 174 166 3
637.4994 -0.7365 637.3448 107 132 85 1
637.5272 -0.8980 644.4909 107 132 85 1
637.1321 -1.1293 671.8654 107 132 85 1
637.5207 -1.1741 679.3223 174 174 166 3
637.6980 -1.1915 681.8359 47 50 54 2
637.5906 -1.2026 685.5532 47 50 54 2
637.1259 -1.1949 689.1753 174 174 166 3
637.1162 -1.1566 703.3870 107 132 85 1
636.8365 -1.1081 706.8247 107 132 85 1
637.4123 -0.7880 720.8581 107 132 85 1
636.5289 -0.2259 734.3142 107 132 85 1
636.4282 0.1557 742.1804 107 132 85 1
636.4518 0.6633 753.0191 107 132 85 1
637.1818 0.8116 756.2658 107 132 85 1
637.2305 0.9363 759.6584 174 174 166 3
636.5650 1.0435 763.5272 47 50 54 2
637.5103 1.1382 766.5247 47 50 54 2
637.2847 1.1975 769.5871 47 50 54 2
637.5058 1.2616 773.6794 107 132 85 1
637.1954 1.3033 781.0213 107 132 85 1
636.7799 0.6869 836.7456 107 132 85 1
637.4815 0.6254 840.3058 174 174 166 3
637.5316 0.5506 843.2548 47 50 54 2
636.5978 0.4220 847.2961 47 50 54 2
636.3142 0.3115 850.7080 174 174 166 3
636.4287 0.0355 858.1552 107 132 85 1
636.3586 -0.2109 863.9802 107 132 85 1
636.5898 -0.5472 871.3242 107 132 85 1
637.3002 -0.8667 878.0845 107 132 85 1
636.4364 -1.3958 896.3489 107 132 85 1
636.3524 -1.4562 902.7278 107 132 85 1
637.1934 -1.4576 909.6212 174 174 166 3
636.5331 -1.3563 916.4576 107 132 85 1
637.5787 -1.2005 924.5461 107 132 85 1
636.8054 -1.0308 930.7237 107 132 85 1
637.1150 -0.9199 935.1359 107 132 85 1
637.3413 -0.7687 941.1901 107 132 85 1
637.5191 -0.4467 955.3195 107 132 85 1
636.3727 -0.1911 966.0531 107 132 85 1
637.2761 0.1449 979.4439 107 132 85 1
637.0830 0.2670 983.3630 47 50 54 2
637.1990 0.4130 987.6302 47 50 54 2
637.1174 0.5130 990.4639 47 50 54 2
636.7747 0.6285 993.8299 107 132 85 1
640.8128 -1.4316 0.0000 107 132 85 1
641.1682 -1.3804 3.9663 107 132 85 1
641.0370 -1.3099 7.0760 107 132 85 1
640.6070 -0.8272 20.6418 107 132 85 1
640.0381 -0.4606 28.3424 107 132 85 1
640.4572 -0.3238 30.9757 107 132 85 1
640.8643 0.0641 38.4628 107 132 85 1
639.9846 0.2589 42.6389 107 132 85 1
640.4345 0.4091 45.7971 107 132 85 1
640.9829 0.7945 55.6926 174 174 166 3
640.2451 0.9067 59.6945 47 50 54 2
639.8288 0.9814 62.8663 47 50 54 2
640.5077 1.0630 66.8182 174 174 166 3
640.7017 1.1085 69.6962 107 132 85 1
640.5606 1.1592 74.1228 107 132 85 1
640.6953 1.1834 76.8733 107 132 85 1
641.0333 1.2055 79.8203 107 132 85 1
640.9239 1.2436 90.6473 107 132 85 1
640.2228 1.2347 93.9403 107 132 85 1
640.5308 1.2467 97.7942 107 132 85 1
640.2710 1.2438 105.0807 107 132 85 1
640.8331 1.2412 116.1786 107 132 85 1
640.9663 1.2298 118.7859 107 132 85 1
640.4780 1.1362 125.9243 107 132 85 1
640.9964 1.0083 133.0711 107 132 85 1
641.1243 0.9251 136.1858 107 132 85 1
639.8532 0.7640 140.6559 174 174 166 3
640.1005 0.6565 143.6571 47 50 54 2
640.7445 0.5032 147.3901 47 50 54 2
641.1560 0.3779 150.0921 174 174 166 3
640.9149 0.0167 157.3552 107 132 85 1
640.6970 -0.1492 160.6062 107 132 85 1
640.0295 -0.3051 163.8465 107 132 85 1
639.8404 -0.6610 171.1093 107 132 85 1
640.2679 -0.8381 174.8239 107 132 85 1
640.9025 -1.1409 182.5298 107 132 85 1
640.9090 -1.2121 184.9315 107 132 85 1
639.9861 -1.3484 191.8894 107 132 85 1
640.8734 -1.4163 196.6903 107 132 85 1
639.9737 -1.4206 199.4216 107 132 85 1
640.3431 -1.4284 202.9835 107 132 85 1
641.0049 -1.4009 209.5554 107 132 85 1
640.0366 -1.3497 213.4343 47 50 54 2
640.5072 -1.3052 217.4163 47 50 54 2
640.1549 -1.2529 220.6761 47 50 54 2
640.3074 -1.1512 227.4672 107 132 85 1
640.6293 -1.0573 234.0227 107 132 85 1
640.6182 -0.9977 237.8880 107 132 85 1
641.1068 -0.9560 241.4786 107 132 85 1
641.0010 -0.6206 258.7697 107 132 85 1
641.1759 0.1225 279.8452 107 132 85 1
640.6377 0.6039 290.3712 107 132 85 1
640.1486 0.7738 294.3063 174 174 166 3
640.0391 0.9310 297.9086 47 50 54 2
640.7674 1.0985 301.3927 47 50 54 2
640.8531 1.2011 303.9885 47 50 54 2
640.3746 1.3145 307.7178 107 132 85 1
639.9222 1.3922 310.8570 107 132 85 1
640.9955 1.5676 318.6339 107 132 85 1
639.8807 1.5270 332.3359 107 132 85 1
640.4225 1.4822 335.6159 107 132 85 1
640.5714 1.4026 339.5340 107 132 85 1
641.0325 1.3314 342.6226 107 132 85 1
640.5705 0.8988 357.2671 107 132 85 1
640.3175 0.6843 364.3891 174 174 166 3
640.2074 0.6031 367.1986 47 50 54 2
640.0806 0.5053 370.7109 47 50 54 2
640.3832 0.4283 373.8896 174 174 166 3
640.5535 0.1548 384.9937 107 132 85 1
640.0629 -0.1179 395.1878 107 132 85 1
640.3763 -0.2250 398.9051 107 132 85 1
641.0873 -0.9617 419.4145 107 132 85 1
639.8267 -1.0783 423.6977 107 132 85 1
641.1785 -1.2488 427.3009 107 132 85 1
639.8745 -1.3034 430.4891 107 132 85 1
640.0548 -1.5046 438.1766 47 50 54 2
640.7080 -1.5799 441.2841 47 50 54 2
640.8079 -1.6191 444.5399 47 50 54 2
640.1473 -1.6163 447.9658 174 174 166 3
