ply
format ascii 1.0
comment generated by citygen
element vertex 1198
property float x
property float y
property float z
property uchar red
property uchar green
property uchar blue
property int class
end_header
0.1075 0.5188 128.0000 47 50 54 2
0.0000 0.6406 131.3509 47 50 54 2
0.6178 0.7557 134.9145 47 50 54 2
0.5599 0.8632 138.8039 47 50 54 2
0.2019 0.9461 142.2985 47 50 54 2
0.0831 1.0174 146.0033 47 50 54 2
0.0000 1.0617 148.8303 47 50 54 2
0.0000 1.1118 153.0510 47 50 54 2
0.0259 1.1334 155.5024 47 50 54 2
0.3837 1.1587 159.9285 47 50 54 2
0.4475 1.1708 162.8725 47 50 54 2
0.0000 1.1836 166.7933 47 50 54 2
0.1784 1.1872 169.8226 47 50 54 2
0.0297 1.1892 174.0456 47 50 54 2
0.0000 1.1878 177.5446 47 50 54 2
0.0000 1.1846 180.6403 47 50 54 2
0.0000 1.1780 184.3740 47 50 54 2
0.2485 1.1724 187.3841 47 50 54 2
0.0000 1.1580 190.4306 47 50 54 2
0.0000 1.1336 194.7464 47 50 54 2
0.0391 1.1115 197.6214 47 50 54 2
0.0000 1.0678 201.6856 47 50 54 2
0.3669 1.0194 205.4080 47 50 54 2
0.4379 0.9531 209.0740 47 50 54 2
0.1386 0.8802 212.2420 47 50 54 2
0.0000 0.7853 215.8418 47 50 54 2
0.2246 0.6799 219.3343 47 50 54 2
0.0000 0.5816 222.2081 47 50 54 2
0.3964 0.4273 226.2478 47 50 54 2
0.4873 0.3009 229.2827 47 50 54 2
0.0000 0.1559 232.6748 47 50 54 2
0.2335 -0.0258 236.6027 47 50 54 2
0.5649 -0.1823 239.8697 47 50 54 2
0.0000 -0.3485 243.5687 47 50 54 2
0.0000 -0.5015 246.9174 47 50 54 2
0.2897 -0.6585 250.4330 47 50 54 2
0.5460 -0.8047 253.9642 47 50 54 2
2.9701 0.5261 128.0082 47 50 54 2
3.9941 0.6341 131.2347 47 50 54 2
3.2972 0.7575 135.3016 47 50 54 2
2.9077 0.8287 137.9344 47 50 54 2
3.0330 0.9244 142.2878 47 50 54 2
3.3350 0.9866 145.9646 47 50 54 2
3.1471 1.0344 149.1178 47 50 54 2
3.9456 1.0580 151.9200 47 50 54 2
3.9216 1.0934 155.5453 47 50 54 2
4.0783 1.1182 158.9877 174 174 166 3
3.5391 1.1458 162.6101 47 50 54 2
3.7428 1.1628 166.4429 47 50 54 2
4.0755 1.1736 169.4416 47 50 54 2
3.0073 1.1886 173.1742 47 50 54 2
3.9600 1.1972 176.5277 47 50 54 2
3.1790 1.2022 180.5611 47 50 54 2
3.2431 1.2041 183.6227 47 50 54 2
3.3114 1.2025 186.9038 47 50 54 2
2.9684 1.1905 190.5416 47 50 54 2
3.0042 1.1718 194.4576 47 50 54 2
3.0779 1.1399 198.5035 47 50 54 2
4.1299 1.1196 201.1404 174 174 166 3
3.9664 1.0566 205.1795 47 50 54 2
4.1038 0.9779 209.1141 47 50 54 2
4.0560 0.8961 212.3983 47 50 54 2
3.8992 0.8175 215.1282 47 50 54 2
3.2035 0.6925 218.9816 47 50 54 2
3.8927 0.5703 222.2475 47 50 54 2
3.3378 0.4322 225.7503 174 174 166 3
3.6799 0.0799 233.5765 107 132 85 1
3.8058 -0.0656 236.6371 107 132 85 1
3.0075 -0.1911 239.4734 174 174 166 3
3.5299 -0.5501 247.1801 174 174 166 3
3.3767 -0.6698 250.0251 47 50 54 2
3.5522 -0.8177 253.7589 47 50 54 2
7.4865 0.5177 128.0000 47 50 54 2
6.5843 0.6232 131.2747 174 174 166 3
6.7738 0.7169 134.7413 107 132 85 1
6.7628 0.8799 142.2377 107 132 85 1
6.7480 0.9397 145.8315 107 132 85 1
6.9629 1.0236 152.6352 107 132 85 1
7.3775 1.0517 156.0276 107 132 85 1
7.1564 1.0846 159.3890 107 132 85 1
7.2121 1.1129 163.0478 174 174 166 3
7.4489 1.1388 166.9181 47 50 54 2
7.5092 1.1596 170.0472 47 50 54 2
6.5686 1.1850 173.7458 174 174 166 3
7.0019 1.2147 180.4633 107 132 85 1
6.9070 1.2189 191.4202 107 132 85 1
7.2346 1.1400 201.0244 107 132 85 1
6.9847 1.0783 204.7578 174 174 166 3
6.3914 1.0077 208.1027 47 50 54 2
6.7126 0.9154 211.7380 47 50 54 2
6.9747 0.7814 216.0507 174 174 166 3
7.1539 0.6847 218.7534 107 132 85 1
6.7313 0.5377 222.6034 174 174 166 3
7.3076 -0.2845 240.5153 107 132 85 1
7.2383 -0.5695 246.9963 174 174 166 3
6.9900 -0.7159 250.6950 47 50 54 2
6.8458 -0.8331 253.9375 47 50 54 2
10.6877 0.5071 128.3128 47 50 54 2
10.3110 0.6133 132.1089 174 174 166 3
10.7289 0.7551 138.7739 107 132 85 1
10.1337 0.8153 141.5252 107 132 85 1
10.0695 0.8778 145.3381 107 132 85 1
10.0179 0.9706 152.3287 107 132 85 1
10.1841 1.0064 155.7895 107 132 85 1
10.6675 1.0372 159.4244 107 132 85 1
10.9091 1.0688 162.8497 174 174 166 3
10.5183 1.1041 166.0421 47 50 54 2
10.4002 1.1420 170.1133 47 50 54 2
10.0882 1.1711 173.4216 174 174 166 3
10.5618 1.2176 180.5548 107 132 85 1
10.9225 1.2387 187.5971 107 132 85 1
9.9477 1.2117 195.0437 107 132 85 1
10.7009 1.1781 198.5489 107 132 85 1
11.0653 1.1272 202.0102 107 132 85 1
10.0525 1.0755 204.9015 174 174 166 3
10.0961 0.9785 209.0320 47 50 54 2
10.9700 0.8888 211.9685 47 50 54 2
10.0900 0.7753 215.6318 174 174 166 3
11.1027 0.4830 222.8341 107 132 85 1
10.1086 -0.1151 236.2512 107 132 85 1
10.6660 -0.3084 240.4094 107 132 85 1
10.9293 -0.4453 243.5618 107 132 85 1
10.9853 -0.5806 246.9335 107 132 85 1
10.7876 -0.7007 250.1978 47 50 54 2
11.0823 -0.8109 253.5772 47 50 54 2
14.1222 0.4651 128.0000 47 50 54 2
13.6933 0.5682 132.0548 174 174 166 3
13.7562 0.8543 148.6785 107 132 85 1
13.6609 1.0397 163.3802 174 174 166 3
13.3975 1.0855 167.0668 47 50 54 2
14.4277 1.1089 169.9967 47 50 54 2
13.5735 1.1538 173.5984 174 174 166 3
14.3529 1.1209 201.3835 107 132 85 1
13.9070 1.0617 204.5463 174 174 166 3
13.6872 0.9679 208.4161 47 50 54 2
14.2932 0.8687 211.5225 47 50 54 2
13.8062 0.7471 215.2791 174 174 166 3
14.3975 0.5760 219.5180 107 132 85 1
14.0831 -0.6804 249.9242 174 174 166 3
14.3292 -0.7874 253.6244 47 50 54 2
17.0280 0.4285 128.0000 47 50 54 2
17.9345 0.4870 131.4395 174 174 166 3
17.8790 0.5542 134.9805 107 132 85 1
17.6263 0.8266 152.3612 107 132 85 1
17.9222 0.8819 156.5809 107 132 85 1
18.0930 0.9642 162.3853 174 174 166 3
18.0112 1.0175 165.9858 47 50 54 2
17.3924 1.0791 169.9481 47 50 54 2
16.9000 1.1230 173.1013 174 174 166 3
17.0936 1.1674 177.4291 107 132 85 1
18.0662 1.1844 180.3512 107 132 85 1
17.6058 1.1426 198.0540 107 132 85 1
17.7669 1.0895 201.1197 107 132 85 1
17.1753 1.0182 204.8156 174 174 166 3
17.1987 0.9044 209.0271 47 50 54 2
16.9787 0.8318 211.4632 47 50 54 2
17.2738 0.6730 215.8390 174 174 166 3
17.5339 0.2672 225.6848 107 132 85 1
17.4087 -0.0636 233.4478 107 132 85 1
17.6749 -0.1698 235.9669 107 132 85 1
17.2158 -0.4590 243.6337 107 132 85 1
16.9098 -0.6659 250.1297 174 174 166 3
17.6023 -0.7474 253.6159 47 50 54 2
20.3845 0.3783 128.0167 47 50 54 2
20.4824 0.4317 130.9545 174 174 166 3
21.2476 0.5486 139.0631 107 132 85 1
21.5608 0.5800 141.6021 107 132 85 1
20.6575 0.7147 149.1317 107 132 85 1
21.4516 0.8119 156.3183 107 132 85 1
21.1540 0.9309 163.2670 174 174 166 3
21.3476 0.9699 165.8725 47 50 54 2
21.2058 1.0383 170.2349 47 50 54 2
20.7713 1.0816 172.9971 174 174 166 3
21.4401 1.1498 180.3006 107 132 85 1
21.3730 0.9275 205.4844 174 174 166 3
21.0277 0.8508 208.4531 47 50 54 2
20.6726 0.7658 211.3721 47 50 54 2
20.5923 0.6022 216.0414 174 174 166 3
20.8553 0.4731 219.2683 107 132 85 1
20.3758 0.3642 222.2239 107 132 85 1
20.9069 -0.4600 244.0977 107 132 85 1
21.3888 -0.6319 251.0317 174 174 166 3
21.0460 -0.6951 253.8505 47 50 54 2
24.7066 0.3124 128.6115 47 50 54 2
24.3002 0.3727 131.9835 174 174 166 3
24.4099 0.4098 134.6087 107 132 85 1
24.7012 0.5143 142.0916 107 132 85 1
25.0361 0.5639 145.7909 107 132 85 1
24.1042 0.8886 163.5748 174 174 166 3
24.4111 0.9293 166.2483 47 50 54 2
24.8890 0.9785 169.7612 47 50 54 2
24.7430 1.0338 173.4778 174 174 166 3
24.2934 1.0811 176.9490 107 132 85 1
24.1870 1.1291 184.0190 107 132 85 1
24.8240 1.0695 194.2832 107 132 85 1
24.6615 1.0138 198.2726 107 132 85 1
24.4329 0.8748 204.8108 174 174 166 3
24.0148 0.7855 208.3407 47 50 54 2
24.9232 0.6534 211.7783 47 50 54 2
24.0009 0.5510 215.3906 174 174 166 3
25.0754 0.3808 219.3900 107 132 85 1
24.7084 0.2937 221.9371 107 132 85 1
24.3715 0.1518 225.8861 107 132 85 1
24.1461 -0.2118 236.2923 107 132 85 1
24.1143 -0.3241 239.9768 107 132 85 1
24.0340 -0.5121 247.3536 174 174 166 3
24.5692 -0.5616 250.2471 47 50 54 2
24.7156 -0.6138 253.5400 47 50 54 2
28.2864 0.2350 128.0000 47 50 54 2
27.6639 0.2938 131.4324 174 174 166 3
27.9816 0.6902 156.5916 107 132 85 1
28.3832 0.7416 159.7154 107 132 85 1
27.6303 0.8135 162.8140 174 174 166 3
28.1235 0.8739 166.7146 47 50 54 2
27.8359 0.9228 169.3801 47 50 54 2
28.2063 0.9731 173.3864 174 174 166 3
28.5995 1.0312 180.7553 107 132 85 1
27.4453 1.0667 184.5486 107 132 85 1
27.5202 0.9943 194.9539 107 132 85 1
28.4947 0.7732 204.3865 174 174 166 3
28.0330 0.6718 208.5030 47 50 54 2
27.9385 0.5674 211.9558 47 50 54 2
28.3819 0.4433 215.3773 174 174 166 3
27.6851 0.3156 219.6243 107 132 85 1
28.3124 -0.1343 233.3561 107 132 85 1
27.6717 -0.4565 247.4819 174 174 166 3
28.4293 -0.4865 250.4796 47 50 54 2
28.4383 -0.5359 254.5945 47 50 54 2
31.2730 0.1803 128.2770 47 50 54 2
31.4763 0.2083 131.0359 174 174 166 3
31.3830 0.4792 149.0717 107 132 85 1
31.8421 0.5252 152.0582 107 132 85 1
31.0315 0.6209 156.1517 107 132 85 1
31.2345 0.7445 162.8002 174 174 166 3
31.7406 0.8043 166.7628 47 50 54 2
31.2530 0.8653 169.9963 47 50 54 2
31.6700 0.8968 173.0512 174 174 166 3
31.8121 0.9435 187.7114 107 132 85 1
31.1142 0.6641 205.3866 174 174 166 3
31.2995 0.5887 207.9253 47 50 54 2
30.9245 0.4835 211.9088 47 50 54 2
31.8285 0.3658 214.9429 174 174 166 3
31.8660 0.2330 219.3230 107 132 85 1
30.8867 -0.0267 228.8959 107 132 85 1
31.0121 -0.2732 239.7027 107 132 85 1
31.0470 -0.3797 246.5584 174 174 166 3
31.5042 -0.4171 250.7417 47 50 54 2
31.9743 -0.4333 253.9921 47 50 54 2
35.4933 0.0990 128.2876 47 50 54 2
34.6959 0.1478 131.5545 174 174 166 3
34.9695 0.1897 135.5872 107 132 85 1
35.6289 0.2672 142.0005 174 174 166 3
35.0943 0.3913 148.5435 107 132 85 1
35.0870 0.4736 152.8651 107 132 85 1
35.4540 0.5197 155.6225 107 132 85 1
34.5417 0.6256 160.1058 107 132 85 1
35.5511 0.6656 163.5053 174 174 166 3
34.9632 0.7234 166.1507 47 50 54 2
34.3974 0.7976 170.2834 47 50 54 2
35.3890 0.8097 173.5929 174 174 166 3
34.4294 0.8612 176.6874 107 132 85 1
34.6661 0.8710 180.7606 107 132 85 1
34.4298 0.8767 184.1090 107 132 85 1
34.4473 0.7855 194.0699 107 132 85 1
35.0067 0.7029 197.6397 107 132 85 1
35.3046 0.5287 205.0143 174 174 166 3
34.9272 0.4474 208.7255 47 50 54 2
35.2586 0.3628 211.5232 47 50 54 2
35.3001 0.2567 215.4965 174 174 166 3
34.4480 0.1802 219.1820 107 132 85 1
35.3775 -0.0808 230.0763 107 132 85 1
34.5593 -0.1300 232.8343 107 132 85 1
35.1164 -0.1868 236.5284 107 132 85 1
34.4916 -0.2793 243.4645 107 132 85 1
34.3758 -0.3105 246.4939 174 174 166 3
34.9399 -0.3304 250.9982 47 50 54 2
34.5815 -0.3571 253.7290 47 50 54 2
38.8917 0.0363 128.1746 47 50 54 2
39.0226 0.0684 131.9840 47 50 54 2
38.2542 0.1218 135.4667 47 50 54 2
38.0518 0.1673 138.6271 47 50 54 2
38.0782 0.2141 141.8071 47 50 54 2
38.4948 0.2720 145.7803 47 50 54 2
37.9647 0.3516 149.5801 174 174 166 3
37.8706 0.4107 152.5915 174 174 166 3
38.1585 0.4804 156.5594 47 50 54 2
38.7769 0.5172 159.2954 47 50 54 2
38.3135 0.6012 163.5504 47 50 54 2
38.5829 0.6432 166.8050 47 50 54 2
38.8130 0.6733 169.7239 47 50 54 2
38.3040 0.7206 173.0574 47 50 54 2
37.9490 0.7535 176.4548 174 174 166 3
38.6127 0.7388 180.4816 47 50 54 2
38.5982 0.7270 184.4710 47 50 54 2
39.0000 0.6857 187.8187 47 50 54 2
38.7224 0.6545 191.5205 47 50 54 2
38.9939 0.6058 194.0619 47 50 54 2
38.2063 0.5770 197.6103 47 50 54 2
38.6542 0.4700 202.0158 47 50 54 2
38.8598 0.3834 205.6118 47 50 54 2
38.6662 0.3158 208.9083 47 50 54 2
38.8161 0.2342 212.2987 47 50 54 2
38.1584 0.1770 215.6906 47 50 54 2
38.4330 0.0883 219.5680 47 50 54 2
39.0359 0.0312 222.0311 47 50 54 2
37.9052 -0.0234 225.9658 174 174 166 3
38.4297 -0.0771 229.2593 47 50 54 2
38.2382 -0.1174 232.4165 47 50 54 2
37.9846 -0.1652 236.8180 174 174 166 3
38.8894 -0.1766 239.7961 47 50 54 2
38.5255 -0.2009 243.0106 47 50 54 2
38.2140 -0.2280 247.4469 47 50 54 2
38.8108 -0.2242 250.7938 47 50 54 2
37.9171 -0.2623 254.4689 47 50 54 2
42.0138 -0.0168 128.0000 47 50 54 2
42.3285 0.0010 130.9312 47 50 54 2
42.2417 0.0416 134.8477 47 50 54 2
41.6165 0.0940 138.1958 47 50 54 2
41.5138 0.1570 142.3708 47 50 54 2
41.7827 0.1997 145.2921 47 50 54 2
41.4754 0.2616 148.5097 47 50 54 2
42.2560 0.3224 152.7826 47 50 54 2
41.9054 0.3917 156.2569 47 50 54 2
41.8544 0.4381 158.9074 47 50 54 2
42.3299 0.4864 162.8210 47 50 54 2
42.3493 0.5392 167.0648 47 50 54 2
41.6365 0.5871 169.6401 47 50 54 2
42.5582 0.5791 172.8806 47 50 54 2
41.5017 0.6305 176.7056 47 50 54 2
41.6153 0.6250 180.2234 47 50 54 2
41.9455 0.5975 183.4658 47 50 54 2
42.1122 0.5543 187.7362 47 50 54 2
41.9302 0.5248 190.8771 47 50 54 2
41.4262 0.4984 194.2105 47 50 54 2
42.1699 0.3938 198.4300 47 50 54 2
42.1017 0.3281 202.1203 47 50 54 2
42.1728 0.2725 204.8691 47 50 54 2
41.8927 0.2044 208.9419 47 50 54 2
41.9264 0.1370 212.5162 47 50 54 2
41.4267 0.0870 216.1282 47 50 54 2
42.0420 0.0264 219.1678 47 50 54 2
41.8858 -0.0081 221.9119 47 50 54 2
42.3178 -0.0547 225.7754 47 50 54 2
41.9953 -0.0836 229.4072 47 50 54 2
41.5494 -0.1082 232.9831 47 50 54 2
41.4576 -0.1250 236.2707 47 50 54 2
41.4629 -0.1367 239.9525 47 50 54 2
41.7155 -0.1375 243.0146 47 50 54 2
42.2771 -0.1276 247.5475 47 50 54 2
41.7557 -0.1429 250.4488 47 50 54 2
41.9666 -0.1413 254.0862 47 50 54 2
45.1417 -0.0629 128.0000 47 50 54 2
45.1397 -0.0344 131.8750 47 50 54 2
45.4774 -0.0106 134.8409 47 50 54 2
46.1247 0.0192 138.2396 174 174 166 3
45.8979 0.0821 142.5467 47 50 54 2
45.0931 0.1318 144.8788 47 50 54 2
45.0124 0.1967 148.7730 47 50 54 2
45.4340 0.2422 152.0488 47 50 54 2
44.9498 0.3125 155.7357 47 50 54 2
45.0569 0.3650 159.4124 47 50 54 2
45.0196 0.4162 163.2875 47 50 54 2
46.0495 0.4109 165.9253 47 50 54 2
45.1341 0.4707 169.8236 47 50 54 2
44.9232 0.4929 173.1204 47 50 54 2
45.1672 0.4851 177.4324 47 50 54 2
45.3910 0.4619 181.0310 47 50 54 2
45.7198 0.4268 183.8983 47 50 54 2
45.2628 0.4066 188.0545 47 50 54 2
45.2273 0.3782 190.4842 47 50 54 2
45.7578 0.2880 195.0561 47 50 54 2
45.6705 0.2544 197.4810 47 50 54 2
45.3299 0.1952 202.0828 47 50 54 2
45.6926 0.1337 205.0503 47 50 54 2
45.2666 0.0922 208.8287 47 50 54 2
45.0479 0.0529 212.1196 47 50 54 2
45.7825 0.0005 214.8972 47 50 54 2
44.8827 -0.0237 219.2010 47 50 54 2
45.9778 -0.0596 222.1534 47 50 54 2
45.2821 -0.0735 226.6021 47 50 54 2
45.9761 -0.0789 230.0231 47 50 54 2
45.8483 -0.0783 232.6246 47 50 54 2
45.4459 -0.0778 235.8983 47 50 54 2
45.4452 -0.0699 239.5123 47 50 54 2
45.7746 -0.0502 244.0798 47 50 54 2
45.5292 -0.0490 246.5533 47 50 54 2
45.5004 -0.0421 250.4576 47 50 54 2
45.6050 -0.0371 253.9810 47 50 54 2
49.6132 -0.1154 128.3209 47 50 54 2
48.7499 -0.0893 131.0133 174 174 166 3
49.4816 0.0088 141.4217 107 132 85 1
49.3659 0.0630 145.3166 107 132 85 1
48.8417 0.2560 158.9788 107 132 85 1
49.4636 0.2745 162.9818 174 174 166 3
49.1127 0.3072 166.1544 47 50 54 2
49.5840 0.3021 169.7001 47 50 54 2
48.6916 0.3403 173.9824 174 174 166 3
48.4609 0.3401 177.6206 174 174 166 3
49.5194 0.2709 180.8288 107 132 85 1
49.4978 0.2117 187.1054 107 132 85 1
49.2566 0.0365 201.8071 107 132 85 1
49.0169 0.0057 205.2740 174 174 166 3
48.7714 -0.0135 207.9248 47 50 54 2
49.3369 -0.0651 212.2234 47 50 54 2
48.4053 -0.0617 215.3603 174 174 166 3
48.4305 -0.0762 218.5414 174 174 166 3
48.4671 -0.0837 222.6536 174 174 166 3
49.3047 -0.0651 229.9864 107 132 85 1
48.4810 0.0240 247.3581 174 174 166 3
48.6626 0.0382 250.0437 47 50 54 2
49.1398 0.0585 254.5763 47 50 54 2
52.1739 -0.1413 128.0000 47 50 54 2
52.1519 -0.1263 130.9351 174 174 166 3
52.6480 -0.0251 142.5714 107 132 85 1
52.7644 0.0133 146.0956 107 132 85 1
52.5512 0.0487 148.8332 107 132 85 1
52.2142 0.0998 152.7795 107 132 85 1
52.6762 0.1171 155.7591 107 132 85 1
52.1020 0.1595 158.8865 107 132 85 1
52.7271 0.1635 163.1173 174 174 166 3
52.1535 0.1942 166.1948 47 50 54 2
52.6382 0.1760 169.8463 47 50 54 2
51.9259 0.1998 173.1041 174 174 166 3
52.9329 -0.1360 205.5857 174 174 166 3
51.9900 -0.1177 208.0925 47 50 54 2
52.7227 -0.1483 212.0389 47 50 54 2
52.8894 -0.1475 215.8145 174 174 166 3
52.5172 -0.1306 219.0382 107 132 85 1
52.4097 -0.0555 229.2214 107 132 85 1
52.6101 0.0230 236.6686 107 132 85 1
52.6660 0.0543 239.6359 107 132 85 1
52.3903 0.0843 243.4642 107 132 85 1
52.7076 0.1167 246.9248 174 174 166 3
52.9589 0.1424 250.6552 47 50 54 2
52.6777 0.1446 253.4634 47 50 54 2
55.7174 -0.1650 128.6218 47 50 54 2
55.6442 -0.1527 131.4999 174 174 166 3
55.6050 -0.1331 134.7306 107 132 85 1
56.1915 -0.0872 141.4655 107 132 85 1
55.6689 0.0556 163.1175 174 174 166 3
55.7169 0.0514 166.4689 47 50 54 2
56.4195 0.0098 169.7239 47 50 54 2
55.7418 0.0228 173.0586 174 174 166 3
55.5024 0.0104 176.4173 107 132 85 1
56.3855 -0.2296 198.2443 107 132 85 1
55.5884 -0.2132 201.4979 107 132 85 1
56.5561 -0.2546 205.1587 174 174 166 3
55.9833 -0.2329 208.8927 47 50 54 2
56.4621 -0.2294 212.2991 47 50 54 2
55.6402 -0.1974 214.9208 174 174 166 3
56.3594 -0.1272 222.6082 107 132 85 1
55.5836 -0.0759 226.4895 107 132 85 1
56.3293 0.1619 243.9251 107 132 85 1
55.7363 0.1806 247.2689 174 174 166 3
56.2480 0.2137 251.0086 47 50 54 2
56.1535 0.2218 253.8824 47 50 54 2
58.9071 -0.1816 128.3018 47 50 54 2
59.6733 -0.1792 131.0651 174 174 166 3
60.0644 -0.1004 152.7808 107 132 85 1
59.7132 -0.0877 156.0857 107 132 85 1
59.4732 -0.0908 162.6316 174 174 166 3
59.9580 -0.1329 166.8801 47 50 54 2
59.5230 -0.1400 170.6035 47 50 54 2
59.1467 -0.1438 173.2358 174 174 166 3
60.0527 -0.2241 176.8960 107 132 85 1
59.6582 -0.2390 180.3888 107 132 85 1
59.4609 -0.3451 194.9403 107 132 85 1
59.3777 -0.3523 200.9500 107 132 85 1
59.4122 -0.3412 205.2887 174 174 166 3
59.0123 -0.3128 208.2941 47 50 54 2
59.2354 -0.2834 212.1635 47 50 54 2
59.6859 -0.2467 215.6801 174 174 166 3
58.9123 -0.1832 219.5296 107 132 85 1
59.3936 0.0573 233.4044 107 132 85 1
59.6817 0.1060 236.1071 107 132 85 1
59.1440 0.2032 243.4575 107 132 85 1
59.0671 0.2387 247.0677 174 174 166 3
59.7790 0.2784 250.9822 47 50 54 2
59.1561 0.2793 253.7860 47 50 54 2
63.1718 -0.1923 128.0000 47 50 54 2
62.4978 -0.1910 131.3603 174 174 166 3
62.6386 -0.1797 138.8047 107 132 85 1
63.4923 -0.1847 145.6529 107 132 85 1
63.1788 -0.1864 152.4030 107 132 85 1
63.2281 -0.2037 156.5925 107 132 85 1
63.1043 -0.2120 158.9230 107 132 85 1
62.5656 -0.2153 162.6165 174 174 166 3
63.4616 -0.2908 166.8682 47 50 54 2
62.9814 -0.2942 169.4492 47 50 54 2
63.6213 -0.3687 173.4882 174 174 166 3
62.5491 -0.3518 176.9221 107 132 85 1
63.2507 -0.4276 180.8434 107 132 85 1
63.1889 -0.4763 201.6363 107 132 85 1
63.4021 -0.4466 205.5082 174 174 166 3
63.4069 -0.4171 207.8912 47 50 54 2
63.1477 -0.3453 212.2927 47 50 54 2
63.4522 -0.2990 215.0652 174 174 166 3
63.0305 -0.2057 219.5587 107 132 85 1
63.1921 -0.1424 222.5447 107 132 85 1
62.3957 0.1443 236.6350 107 132 85 1
63.2800 0.2001 239.3753 107 132 85 1
63.4894 0.3037 247.1343 174 174 166 3
62.8699 0.3260 250.9879 47 50 54 2
63.1990 0.3471 254.5371 47 50 54 2
66.0408 -0.1950 128.3844 47 50 54 2
65.9097 -0.2028 131.7127 174 174 166 3
67.0743 -0.2363 141.5439 107 132 85 1
66.5480 -0.2879 153.0188 107 132 85 1
66.7763 -0.4015 163.5139 174 174 166 3
66.1688 -0.4074 166.2615 47 50 54 2
66.2518 -0.4539 169.7564 47 50 54 2
66.2941 -0.4955 173.0061 174 174 166 3
65.9661 -0.5189 176.4456 107 132 85 1
66.0801 -0.5888 183.3768 107 132 85 1
66.0035 -0.5894 198.3145 107 132 85 1
66.7438 -0.5334 204.8546 174 174 166 3
66.7356 -0.4718 208.4095 47 50 54 2
65.9049 -0.3919 211.8307 47 50 54 2
65.9476 -0.3179 215.2896 174 174 166 3
66.6746 -0.1355 222.9345 107 132 85 1
66.0575 -0.0553 226.1885 107 132 85 1
65.9221 0.0135 229.0856 107 132 85 1
66.0206 0.1708 236.3301 107 132 85 1
66.6017 0.3310 246.4529 174 174 166 3
66.5676 0.3641 250.0169 47 50 54 2
66.5236 0.3898 254.3345 47 50 54 2
69.4146 -0.1929 128.2202 47 50 54 2
70.1633 -0.2115 131.2892 174 174 166 3
69.4334 -0.2297 134.8968 107 132 85 1
69.9053 -0.2845 142.4306 107 132 85 1
69.5323 -0.3326 148.6820 107 132 85 1
70.1892 -0.3921 152.3628 107 132 85 1
69.4014 -0.5142 163.4794 174 174 166 3
70.6035 -0.6176 166.8899 47 50 54 2
70.2690 -0.6464 169.9424 47 50 54 2
69.9185 -0.6754 173.3811 174 174 166 3
69.4189 -0.6951 177.2027 107 132 85 1
69.6709 -0.7552 183.6480 107 132 85 1
70.4217 -0.6787 201.0166 107 132 85 1
69.5404 -0.5758 205.6117 174 174 166 3
70.1603 -0.5311 208.1334 47 50 54 2
70.2092 -0.4434 211.7474 47 50 54 2
70.0147 -0.3573 214.9555 174 174 166 3
70.2709 -0.2393 219.2776 107 132 85 1
69.4411 0.0276 229.1486 107 132 85 1
69.6987 0.1990 236.6057 107 132 85 1
69.6352 0.2679 240.3271 107 132 85 1
70.0945 0.3705 247.5107 174 174 166 3
70.1477 0.4010 250.6605 47 50 54 2
69.6275 0.4221 254.3221 47 50 54 2
73.3575 -0.1858 128.0000 47 50 54 2
73.3708 -0.2174 131.2611 174 174 166 3
73.2401 -0.3361 142.1230 107 132 85 1
73.9287 -0.4505 148.9647 107 132 85 1
73.2033 -0.6032 159.2569 107 132 85 1
73.8755 -0.6956 162.9428 174 174 166 3
73.9275 -0.7535 166.1752 47 50 54 2
73.5230 -0.7972 170.0989 47 50 54 2
73.8200 -0.8549 173.4273 174 174 166 3
73.1655 -0.8885 180.2986 107 132 85 1
73.7382 -0.9239 184.5444 107 132 85 1
73.4129 -0.9083 187.0944 107 132 85 1
73.4493 -0.8890 190.8906 107 132 85 1
73.3884 -0.7424 200.9836 107 132 85 1
73.1239 -0.6535 204.7955 174 174 166 3
73.8580 -0.5520 209.0767 47 50 54 2
73.4890 -0.4749 211.6812 47 50 54 2
73.9695 -0.3767 215.1092 174 174 166 3
73.3598 -0.0433 226.2940 107 132 85 1
73.7741 0.1166 232.3909 107 132 85 1
73.3527 0.3798 246.8979 174 174 166 3
73.0505 0.4213 250.8784 47 50 54 2
73.5299 0.4512 254.0818 47 50 54 2
76.4983 -0.1804 128.0000 47 50 54 2
76.6367 -0.2361 132.1137 174 174 166 3
76.7467 -0.3341 138.5067 107 132 85 1
77.5932 -0.4839 145.8170 174 174 166 3
77.2765 -0.6247 152.9354 107 132 85 1
76.5589 -0.8045 162.8904 174 174 166 3
77.4335 -0.9035 166.3277 47 50 54 2
77.1010 -0.9539 170.3312 47 50 54 2
76.6503 -0.9767 173.5521 174 174 166 3
76.3779 -1.0008 177.3609 107 132 85 1
76.4858 -1.0195 180.0925 107 132 85 1
76.8219 -0.8026 200.9650 107 132 85 1
77.2003 -0.7016 205.0162 174 174 166 3
76.5682 -0.5908 208.6230 47 50 54 2
77.2663 -0.4871 212.1582 47 50 54 2
76.8357 -0.3609 216.0567 174 174 166 3
77.1471 -0.0711 225.4613 107 132 85 1
77.5841 0.3347 243.3061 174 174 166 3
77.0819 0.3882 246.9297 174 174 166 3
77.6225 0.4273 249.9549 47 50 54 2
77.5874 0.4772 254.4723 47 50 54 2
80.8091 -0.1756 128.0538 47 50 54 2
81.0994 -0.2292 130.8781 47 50 54 2
79.9166 -0.2995 134.7993 174 174 166 3
81.0228 -0.3813 138.1496 47 50 54 2
80.0876 -0.4563 142.1318 47 50 54 2
80.1703 -0.5268 145.1087 47 50 54 2
80.9824 -0.6365 148.7682 47 50 54 2
80.6563 -0.7108 152.0962 47 50 54 2
79.9465 -0.7768 155.7456 174 174 166 3
80.1069 -0.8773 159.8446 47 50 54 2
80.5642 -0.9589 162.8507 47 50 54 2
81.0409 -1.0469 166.5174 47 50 54 2
80.0044 -1.0662 170.1967 47 50 54 2
80.6796 -1.1242 172.9560 47 50 54 2
80.9015 -1.1589 176.3861 47 50 54 2
80.7220 -1.1636 180.5404 47 50 54 2
80.4486 -1.1441 184.2049 47 50 54 2
80.1147 -1.1075 187.6074 47 50 54 2
80.6185 -1.0830 190.4036 47 50 54 2
80.0295 -0.9912 194.9093 47 50 54 2
80.6585 -0.9277 198.1285 47 50 54 2
80.5559 -0.8443 201.2507 47 50 54 2
80.1506 -0.7346 204.8955 47 50 54 2
80.5144 -0.6062 209.0727 47 50 54 2
80.2601 -0.4977 212.3440 47 50 54 2
80.2790 -0.3783 215.9679 47 50 54 2
80.0798 -0.2636 219.4698 47 50 54 2
80.0535 -0.1490 223.1269 47 50 54 2
80.1253 -0.0760 225.5833 47 50 54 2
80.9630 0.0136 228.8966 47 50 54 2
80.3413 0.1071 232.4391 47 50 54 2
80.1976 0.1898 235.9953 47 50 54 2
80.5458 0.2765 240.3465 47 50 54 2
80.6185 0.3346 243.6405 47 50 54 2
80.3667 0.3813 246.5407 47 50 54 2
81.0160 0.4341 250.2147 47 50 54 2
80.4143 0.4779 253.5854 47 50 54 2
83.9127 -0.1733 128.0000 47 50 54 2
83.5392 -0.2656 132.1042 47 50 54 2
84.3658 -0.3306 134.5176 47 50 54 2
83.6121 -0.4382 139.0042 47 50 54 2
83.7723 -0.5065 141.4542 47 50 54 2
83.7278 -0.6328 146.0339 47 50 54 2
83.4602 -0.7033 148.7894 47 50 54 2
84.3691 -0.8159 151.9008 47 50 54 2
84.5044 -0.9313 155.9584 47 50 54 2
84.1495 -1.0098 159.5149 47 50 54 2
84.2432 -1.0908 162.9718 47 50 54 2
83.6515 -1.1480 167.0715 47 50 54 2
84.3845 -1.2100 169.6813 47 50 54 2
83.6917 -1.2325 174.0797 47 50 54 2
84.5188 -1.2675 176.4892 47 50 54 2
83.9232 -1.2514 180.3980 47 50 54 2
84.4695 -1.2457 183.5089 47 50 54 2
84.3704 -1.1947 187.7057 47 50 54 2
84.5610 -1.1449 190.7961 47 50 54 2
83.4178 -1.0500 194.5387 47 50 54 2
83.9481 -0.9837 197.4397 47 50 54 2
83.9277 -0.8584 201.8213 47 50 54 2
83.5985 -0.7533 205.1183 47 50 54 2
84.1424 -0.6357 208.7889 47 50 54 2
84.3268 -0.5238 212.1432 47 50 54 2
84.4776 -0.3958 215.9908 47 50 54 2
84.2924 -0.2868 219.3103 47 50 54 2
83.8060 -0.1762 222.7745 47 50 54 2
84.2408 -0.0836 226.0074 47 50 54 2
84.5291 0.0227 229.9900 47 50 54 2
83.4499 0.1035 232.9540 47 50 54 2
84.3723 0.1775 236.4571 47 50 54 2
84.2487 0.2637 240.6069 47 50 54 2
83.6887 0.3158 243.2198 47 50 54 2
83.7122 0.3859 247.2842 47 50 54 2
83.9372 0.4464 251.0421 47 50 54 2
83.8565 0.4966 254.2499 47 50 54 2
87.9361 -0.1797 128.1102 47 50 54 2
87.0402 -0.2702 131.5191 47 50 54 2
87.8705 -0.3871 135.2866 47 50 54 2
87.4169 -0.4632 137.9502 47 50 54 2
87.1811 -0.5891 142.1053 47 50 54 2
87.2078 -0.6910 145.3107 47 50 54 2
86.9967 -0.7967 148.8396 47 50 54 2
87.5196 -0.9390 153.0728 47 50 54 2
86.9589 -1.0029 155.8676 47 50 54 2
88.1254 -1.1169 158.9277 174 174 166 3
87.7226 -1.1871 162.4643 47 50 54 2
87.7742 -1.2585 166.2089 47 50 54 2
87.5627 -1.2973 169.3962 47 50 54 2
87.0903 -1.3211 173.5821 47 50 54 2
87.1850 -1.3314 177.6281 47 50 54 2
87.7094 -1.3272 180.9188 47 50 54 2
87.9777 -1.3056 183.6361 47 50 54 2
87.6090 -1.2391 187.8253 47 50 54 2
87.4465 -1.1741 191.0272 47 50 54 2
87.8371 -1.0993 194.2971 47 50 54 2
87.3444 -0.9794 198.5208 47 50 54 2
87.1201 -0.8786 201.7903 47 50 54 2
87.0804 -0.7803 204.8400 47 50 54 2
87.1233 -0.6707 208.1388 47 50 54 2
87.3796 -0.5411 212.0264 47 50 54 2
87.7648 -0.4298 215.4345 47 50 54 2
86.8971 -0.2937 219.5338 47 50 54 2
87.0538 -0.1886 223.0159 47 50 54 2
87.4655 -0.1078 225.9344 47 50 54 2
87.3414 -0.0097 229.5588 47 50 54 2
86.9975 0.0733 232.7791 47 50 54 2
87.5345 0.1432 235.9942 47 50 54 2
87.1354 0.2305 239.9112 47 50 54 2
87.6495 0.2879 242.9258 47 50 54 2
87.7972 0.3737 247.3583 47 50 54 2
87.4356 0.4450 251.0635 47 50 54 2
87.2652 0.5110 254.5811 47 50 54 2
90.8347 -0.1926 128.2970 47 50 54 2
90.6348 -0.2979 131.6511 174 174 166 3
90.4434 -0.5419 138.9736 174 174 166 3
91.5007 -1.0180 152.3118 107 132 85 1
90.4901 -1.2041 159.9295 174 174 166 3
90.3718 -1.2754 163.3995 174 174 166 3
91.0925 -1.3377 166.1226 47 50 54 2
91.3737 -1.3884 170.0856 47 50 54 2
91.5706 -1.4098 173.8809 174 174 166 3
90.8530 -1.3955 177.3071 107 132 85 1
90.7733 -1.3338 183.9483 107 132 85 1
90.5465 -1.2740 187.4031 107 132 85 1
90.4234 -1.1817 191.6165 174 174 166 3
90.8957 -1.0974 194.9332 107 132 85 1
90.6188 -1.0159 197.7449 107 132 85 1
90.4724 -0.9013 201.4499 174 174 166 3
90.7893 -0.7893 204.9373 174 174 166 3
91.2431 -0.6758 208.4201 47 50 54 2
90.5818 -0.5454 212.3113 47 50 54 2
91.3169 -0.4464 215.5124 174 174 166 3
91.2699 -0.0375 229.9027 107 132 85 1
91.3474 0.0398 233.0882 107 132 85 1
90.5831 0.1180 236.1128 107 132 85 1
90.8274 0.2752 243.3432 107 132 85 1
91.2213 0.3533 247.0564 174 174 166 3
90.4448 0.4423 251.0632 47 50 54 2
90.5683 0.5093 254.1269 47 50 54 2
94.0042 -0.1953 128.0000 47 50 54 2
93.9703 -0.3072 131.1800 47 50 54 2
94.8335 -0.4533 134.8891 107 132 85 1
94.5458 -0.9899 149.4200 107 132 85 1
94.1735 -1.0992 153.0132 107 132 85 1
94.9032 -1.3526 162.6392 174 174 166 3
94.5000 -1.4096 166.9773 47 50 54 2
94.5711 -1.4340 169.6550 47 50 54 2
94.8624 -1.4486 173.8428 174 174 166 3
94.2935 -1.3624 183.4436 107 132 85 1
95.0273 -1.2814 187.7845 107 132 85 1
94.6416 -1.1013 194.9361 107 132 85 1
94.6367 -1.0140 197.9363 107 132 85 1
94.9767 -0.7964 204.9472 174 174 166 3
94.7700 -0.6819 208.5527 47 50 54 2
93.9988 -0.5553 212.4885 47 50 54 2
94.7660 -0.4829 214.9919 174 174 166 3
94.5863 -0.1805 225.6894 107 132 85 1
94.9998 -0.0039 232.9142 107 132 85 1
94.2948 0.1708 239.9517 107 132 85 1
94.3813 0.3499 247.4823 174 174 166 3
94.4531 0.4101 249.9217 47 50 54 2
94.0841 0.5273 254.5280 47 50 54 2
97.3991 -0.2129 128.0000 47 50 54 2
97.9378 -0.3781 132.1145 174 174 166 3
98.0013 -0.4699 134.3731 174 174 166 3
98.3088 -0.7932 142.2773 174 174 166 3
97.4897 -0.9025 145.4649 47 50 54 2
98.5346 -1.0646 149.5161 107 132 85 1
98.4913 -1.2632 156.1369 107 132 85 1
98.5444 -1.3973 162.5150 174 174 166 3
97.7478 -1.4391 166.3106 47 50 54 2
97.7422 -1.4656 170.5974 47 50 54 2
98.0658 -1.4663 173.5447 174 174 166 3
97.7947 -1.4452 177.1998 107 132 85 1
97.6821 -1.4003 181.1146 107 132 85 1
98.0485 -1.3514 184.0505 107 132 85 1
98.1668 -1.2755 187.7428 107 132 85 1
97.9037 -1.0128 197.7808 107 132 85 1
97.5597 -0.7855 205.3779 174 174 166 3
98.2714 -0.6815 208.8877 47 50 54 2
97.9301 -0.5881 212.0275 47 50 54 2
98.4103 -0.4800 215.9361 174 174 166 3
98.2480 -0.2921 222.8996 107 132 85 1
97.4381 -0.0191 233.4216 107 132 85 1
97.5677 0.0424 235.9822 107 132 85 1
97.6189 0.3183 246.7640 174 174 166 3
97.5229 0.4346 250.9631 47 50 54 2
98.2657 0.5134 253.6499 47 50 54 2
101.8864 -0.2672 128.5778 47 50 54 2
102.1246 -0.4128 131.9547 47 50 54 2
101.1000 -0.5260 134.8647 107 132 85 1
101.3414 -0.6651 138.0910 107 132 85 1
101.4656 -0.8046 141.4400 174 174 166 3
100.8973 -0.9601 145.6291 47 50 54 2
101.1870 -1.0747 148.7289 47 50 54 2
101.5799 -1.1894 152.1718 174 174 166 3
101.7280 -1.3590 158.9792 107 132 85 1
102.0794 -1.4254 163.0908 174 174 166 3
102.0192 -1.4587 166.7655 47 50 54 2
100.9958 -1.4708 169.8495 47 50 54 2
101.7841 -1.4584 174.0596 174 174 166 3
101.6325 -1.4293 177.5672 107 132 85 1
101.6514 -1.0786 194.8026 107 132 85 1
101.3138 -0.8943 201.5648 107 132 85 1
101.2432 -0.8155 204.3749 174 174 166 3
102.1160 -0.6898 208.9851 47 50 54 2
101.9171 -0.6249 211.3882 47 50 54 2
101.2029 -0.5051 215.7687 174 174 166 3
100.8826 -0.4185 219.0136 107 132 85 1
101.3824 -0.2383 226.4168 107 132 85 1
101.2415 -0.1528 229.8003 107 132 85 1
101.4266 0.3080 246.8744 174 174 166 3
101.2453 0.4235 250.6049 47 50 54 2
101.3403 0.5484 254.4763 47 50 54 2
105.3594 -0.2810 128.2422 47 50 54 2
104.5527 -0.4201 131.5762 47 50 54 2
104.7554 -0.5480 134.4504 174 174 166 3
105.5756 -0.7358 138.6328 174 174 166 3
105.4228 -0.8599 141.7072 47 50 54 2
105.3725 -0.9897 145.1186 47 50 54 2
104.9392 -1.1283 149.2661 47 50 54 2
105.3280 -1.2296 152.6598 107 132 85 1
104.5306 -1.3753 159.4433 107 132 85 1
105.3582 -1.4197 162.9665 174 174 166 3
104.4160 -1.4495 166.4188 47 50 54 2
104.6016 -1.4543 169.9972 47 50 54 2
104.7740 -1.4401 173.2761 174 174 166 3
104.9382 -1.3594 180.3600 107 132 85 1
104.5694 -1.2898 184.5862 107 132 85 1
105.3810 -0.7836 205.5350 174 174 166 3
104.9421 -0.7241 207.9192 47 50 54 2
105.4555 -0.6287 211.9051 47 50 54 2
104.9208 -0.5383 215.5465 174 174 166 3
105.2798 -0.4472 219.5092 107 132 85 1
105.2172 -0.0316 236.0386 107 132 85 1
105.2493 0.3008 246.9275 174 174 166 3
104.9787 0.4334 250.8274 47 50 54 2
105.2644 0.5451 253.9786 47 50 54 2
107.9350 -0.2918 128.0000 47 50 54 2
107.9765 -0.4223 130.9116 47 50 54 2
108.8283 -0.6038 134.8545 174 174 166 3
108.8611 -0.7614 138.5731 47 50 54 2
108.8372 -0.9170 142.5350 47 50 54 2
108.5914 -1.0091 145.1172 47 50 54 2
107.9742 -1.1423 149.3094 174 174 166 3
109.1228 -1.2254 152.4282 107 132 85 1
108.0118 -1.3663 159.6809 107 132 85 1
108.0483 -1.4036 163.4196 174 174 166 3
108.3329 -1.4132 166.1846 47 50 54 2
109.1235 -1.4000 169.6904 47 50 54 2
108.0790 -1.3987 173.0397 174 174 166 3
108.7171 -1.3483 177.0522 107 132 85 1
108.5721 -1.2536 183.4493 107 132 85 1
107.8967 -1.1884 187.4061 107 132 85 1
109.0532 -1.1060 190.6100 107 132 85 1
108.6915 -1.0165 194.9647 107 132 85 1
108.6701 -0.9380 198.5188 107 132 85 1
109.0946 -0.7825 205.5326 174 174 166 3
108.1734 -0.7225 208.2443 47 50 54 2
108.8774 -0.6423 212.0238 47 50 54 2
108.3043 -0.5607 215.6229 174 174 166 3
108.1664 -0.1352 233.2144 107 132 85 1
108.2133 -0.0298 236.8998 107 132 85 1
108.5115 0.2821 246.4989 174 174 166 3
108.8533 0.4139 250.1377 47 50 54 2
108.1836 0.5576 254.0372 47 50 54 2
112.3398 -0.3283 128.0000 47 50 54 2
111.9992 -0.4577 130.9625 47 50 54 2
111.7629 -0.6246 134.8415 174 174 166 3
111.3890 -0.7835 138.7569 47 50 54 2
111.8776 -0.9214 142.3855 47 50 54 2
111.9200 -1.0065 144.8922 174 174 166 3
112.5622 -1.2154 152.9486 107 132 85 1
111.4465 -1.2871 156.3301 107 132 85 1
112.3768 -1.3151 159.4856 174 174 166 3
112.0871 -1.3423 162.4123 174 174 166 3
111.4634 -1.3645 166.9951 47 50 54 2
112.0495 -1.3451 169.8434 47 50 54 2
111.8752 -1.3287 172.9496 174 174 166 3
112.0399 -1.2805 177.2563 107 132 85 1
111.8901 -1.1852 183.9554 107 132 85 1
112.0185 -1.1140 187.9076 107 132 85 1
112.5613 -0.9800 194.7469 107 132 85 1
112.4532 -0.9305 197.4535 107 132 85 1
111.7424 -0.8516 201.8431 107 132 85 1
112.3766 -0.7831 205.3486 174 174 166 3
111.8631 -0.7152 208.9166 47 50 54 2
111.8244 -0.6434 212.6048 47 50 54 2
111.6485 -0.5835 215.5584 174 174 166 3
111.4418 -0.3596 225.6494 107 132 85 1
111.8614 -0.1555 233.4323 107 132 85 1
111.8850 -0.0520 236.8463 107 132 85 1
111.5952 0.0630 240.3371 107 132 85 1
111.5916 0.1733 243.5205 107 132 85 1
111.8318 0.2795 246.4439 174 174 166 3
111.8288 0.4520 250.9870 47 50 54 2
112.5802 0.5775 254.1550 47 50 54 2
114.8987 -0.3526 128.1049 47 50 54 2
115.7238 -0.4783 130.8724 47 50 54 2
115.0973 -0.6402 134.8275 47 50 54 2
114.9010 -0.7760 138.3209 47 50 54 2
115.2976 -0.8843 141.3736 47 50 54 2
115.9845 -0.9967 145.1173 174 174 166 3
115.2957 -1.0897 148.4570 174 174 166 3
115.3801 -1.1766 152.6807 174 174 166 3
116.0506 -1.2126 155.8427 47 50 54 2
115.8698 -1.2523 159.6505 47 50 54 2
115.7233 -1.2718 163.4710 47 50 54 2
115.3296 -1.2814 166.3735 47 50 54 2
115.9939 -1.2518 169.7914 47 50 54 2
114.9164 -1.2519 173.6037 174 174 166 3
116.0064 -1.1904 176.9160 107 132 85 1
114.9001 -1.1808 179.9378 107 132 85 1
115.8914 -1.1047 183.8097 107 132 85 1
116.0838 -1.0553 186.9528 107 132 85 1
115.6412 -0.9940 191.5161 107 132 85 1
116.0354 -0.9389 194.7491 107 132 85 1
116.0395 -0.8832 198.4034 107 132 85 1
115.1116 -0.7841 205.0044 174 174 166 3
115.2703 -0.7366 207.8743 47 50 54 2
115.5453 -0.6749 211.5450 47 50 54 2
116.1268 -0.6163 214.9548 174 174 166 3
115.4877 -0.2923 229.2834 107 132 85 1
115.2728 -0.1841 233.0175 107 132 85 1
115.4198 0.0515 240.2033 107 132 85 1
115.6972 0.1753 243.6044 107 132 85 1
115.0241 0.3116 247.2030 174 174 166 3
115.5619 0.4545 250.8222 47 50 54 2
115.2049 0.5625 253.5766 47 50 54 2
118.9921 -0.3745 128.0000 47 50 54 2
118.7887 -0.5161 131.4704 47 50 54 2
119.0355 -0.6692 135.4603 47 50 54 2
119.0461 -0.7590 138.0261 47 50 54 2
119.3681 -0.8837 142.1118 47 50 54 2
118.7853 -0.9823 145.6256 47 50 54 2
119.0600 -1.0505 148.9499 47 50 54 2
118.5229 -1.1207 152.5292 47 50 54 2
119.5417 -1.1428 156.4682 47 50 54 2
119.0264 -1.1738 159.1068 47 50 54 2
119.6104 -1.1679 162.4933 47 50 54 2
118.5874 -1.1932 166.6307 47 50 54 2
119.5199 -1.1526 169.5876 174 174 166 3
119.4397 -1.1246 173.9093 174 174 166 3
118.8530 -1.1106 177.2399 107 132 85 1
118.7223 -0.9885 188.0558 107 132 85 1
119.4287 -0.9338 191.5192 107 132 85 1
118.6765 -0.8583 198.4848 107 132 85 1
119.5402 -0.7770 204.4765 174 174 166 3
118.4441 -0.7171 209.0486 47 50 54 2
119.3695 -0.6673 212.3249 47 50 54 2
119.4475 -0.6176 215.3416 174 174 166 3
119.0821 -0.5478 219.0592 107 132 85 1
118.7310 -0.4785 222.2992 107 132 85 1
119.6274 -0.3994 225.7170 174 174 166 3
119.2851 -0.3098 229.0594 107 132 85 1
119.1352 -0.1987 232.8040 107 132 85 1
119.1936 -0.0665 236.8371 107 132 85 1
119.0904 0.1620 243.1339 107 132 85 1
118.3980 0.3019 246.7924 174 174 166 3
119.5097 0.4337 250.0773 47 50 54 2
118.5663 0.5884 254.0569 47 50 54 2
122.1080 -0.4042 128.3932 47 50 54 2
122.8550 -0.5147 131.3078 47 50 54 2
122.9045 -0.6254 134.5190 47 50 54 2
121.9099 -0.7713 139.0013 47 50 54 2
122.8240 -0.8490 142.3506 47 50 54 2
122.9118 -0.9179 145.6309 47 50 54 2
122.8516 -0.9688 148.4883 47 50 54 2
122.3314 -1.0384 152.8984 47 50 54 2
122.7965 -1.0504 155.8831 47 50 54 2
122.7321 -1.0676 159.2709 174 174 166 3
122.9309 -1.0649 162.4423 174 174 166 3
122.3388 -1.0779 166.1419 174 174 166 3
121.9763 -1.0723 170.0777 107 132 85 1
122.6463 -1.0304 173.2789 174 174 166 3
122.2711 -1.0120 177.2439 47 50 54 2
123.0551 -0.9605 180.7740 47 50 54 2
122.0955 -0.9595 183.8018 47 50 54 2
122.0527 -0.9220 188.0104 47 50 54 2
122.2606 -0.8884 191.2807 47 50 54 2
121.9640 -0.8633 194.5473 174 174 166 3
122.5259 -0.8244 198.0352 47 50 54 2
122.4432 -0.7983 200.9107 47 50 54 2
121.9482 -0.7530 205.5642 174 174 166 3
122.5513 -0.7168 208.4391 47 50 54 2
122.0914 -0.6785 211.4401 47 50 54 2
122.3787 -0.6191 215.2918 47 50 54 2
122.1292 -0.5594 218.6231 47 50 54 2
121.9385 -0.4722 222.7647 174 174 166 3
122.6275 -0.3849 226.3023 47 50 54 2
122.1540 -0.3041 229.2624 47 50 54 2
122.7862 -0.1891 232.9905 47 50 54 2
121.8794 -0.0869 236.1270 174 174 166 3
122.2577 0.0388 239.6357 47 50 54 2
122.5930 0.1872 243.5669 47 50 54 2
122.3650 0.3238 247.1199 47 50 54 2
121.9393 0.4598 250.6407 47 50 54 2
122.7866 0.5954 254.2000 47 50 54 2
126.5710 -0.3972 128.0000 47 50 54 2
126.0148 -0.5314 132.0480 47 50 54 2
126.0813 -0.6242 135.1924 47 50 54 2
125.7088 -0.7004 137.9019 47 50 54 2
125.9527 -0.7964 142.3488 47 50 54 2
125.9278 -0.8520 145.4732 47 50 54 2
126.2986 -0.8857 148.6366 174 174 166 3
125.5506 -0.9482 152.9899 174 174 166 3
126.0170 -0.9182 173.4613 174 174 166 3
126.5894 -0.8825 176.7021 47 50 54 2
126.3098 -0.8685 180.9664 47 50 54 2
125.7370 -0.8674 183.9462 47 50 54 2
126.1802 -0.8364 187.7557 47 50 54 2
125.9556 -0.8231 191.1831 47 50 54 2
125.9632 -0.8023 194.9906 47 50 54 2
125.7398 -0.7899 197.6247 47 50 54 2
125.7728 -0.7636 201.4814 47 50 54 2
125.5098 -0.7422 204.4556 47 50 54 2
126.1027 -0.6957 208.8130 47 50 54 2
126.2169 -0.6607 211.6855 47 50 54 2
126.0925 -0.6038 215.6057 47 50 54 2
125.4432 -0.5446 219.0497 47 50 54 2
125.4867 -0.4628 222.8627 47 50 54 2
125.3885 -0.3945 225.6582 47 50 54 2
126.5693 -0.2903 229.2220 47 50 54 2
126.2227 -0.1845 232.7168 47 50 54 2
126.2039 -0.0782 235.9058 47 50 54 2
126.4216 0.0794 240.3083 47 50 54 2
125.5785 0.1878 243.3262 47 50 54 2
126.0663 0.3164 246.7139 47 50 54 2
126.3571 0.4510 250.3415 47 50 54 2
125.5566 0.5658 253.5029 47 50 54 2
11.8057 23.4372 182.9596 112 116 122 5
11.9653 23.4372 187.2683 112 116 122 5
12.1810 23.4372 191.2546 112 116 122 5
12.3022 23.4372 195.6690 112 116 122 5
15.0460 23.4372 183.2387 112 116 122 5
15.9658 23.4372 186.3672 112 116 122 5
16.1273 23.4372 190.3342 112 116 122 5
15.1536 23.4372 195.2857 112 116 122 5
19.0135 23.4372 182.9596 112 116 122 5
19.5554 23.4372 186.2417 112 116 122 5
20.1137 23.4372 191.4509 112 116 122 5
19.3742 23.4372 195.1146 112 116 122 5
12.1043 1.4418 182.9596 176 164 148 4
12.2044 5.8505 182.9596 176 164 148 4
11.6862 8.5808 182.9596 176 164 148 4
11.9236 12.7616 182.9596 176 164 148 4
11.6902 16.5934 182.9596 176 164 148 4
11.8782 21.6311 182.9596 176 164 148 4
15.9078 1.5416 182.9596 176 164 148 4
16.0833 4.8996 182.9596 176 164 148 4
16.0500 9.8815 182.9596 176 164 148 4
16.1509 12.9341 182.9596 176 164 148 4
15.9063 16.6665 182.9596 176 164 148 4
16.2423 20.9176 182.9596 176 164 148 4
19.7263 1.2163 182.9596 176 164 148 4
19.4563 5.6524 182.9596 176 164 148 4
20.2106 9.8052 182.9596 176 164 148 4
19.2853 12.8926 182.9596 176 164 148 4
19.5887 17.0935 182.9596 176 164 148 4
20.2107 20.9189 182.9596 176 164 148 4
11.6862 1.8939 197.8233 176 164 148 4
11.6862 5.4893 197.8233 176 164 148 4
11.6862 9.8857 197.8233 176 164 148 4
12.0486 13.4336 197.8233 176 164 148 4
12.3366 17.0737 197.8233 176 164 148 4
11.6862 21.3113 197.8233 176 164 148 4
15.6057 1.4219 197.8233 176 164 148 4
15.4094 5.9143 197.8233 176 164 148 4
15.1111 9.6297 197.8233 176 164 148 4
15.3685 13.3950 197.8233 176 164 148 4
15.0111 17.5923 197.8233 176 164 148 4
15.6132 20.9778 197.8233 176 164 148 4
19.8938 1.7587 197.8233 176 164 148 4
19.9297 4.8917 197.8233 176 164 148 4
20.1321 9.3463 197.8233 176 164 148 4
19.9960 13.1046 197.8233 176 164 148 4
19.4530 17.2641 197.8233 176 164 148 4
19.9814 21.0019 197.8233 176 164 148 4
11.6862 1.7798 182.9596 176 164 148 4
11.6862 5.0023 183.1803 176 164 148 4
11.6862 8.5680 183.6400 176 164 148 4
11.6862 12.9727 182.9596 176 164 148 4
11.6862 16.8603 182.9596 176 164 148 4
11.6862 21.2648 183.0688 176 164 148 4
11.6862 1.2163 187.5325 176 164 148 4
11.6862 5.7391 187.4955 176 164 148 4
11.6862 9.2227 186.3944 176 164 148 4
11.6862 12.6197 187.0309 176 164 148 4
11.6862 17.3812 187.0087 176 164 148 4
11.6862 20.9460 187.5367 176 164 148 4
11.6862 1.5706 190.7148 176 164 148 4
11.6862 4.5627 191.0310 176 164 148 4
11.6862 8.7870 190.4057 176 164 148 4
11.6862 13.4954 190.9256 176 164 148 4
11.6862 17.1202 191.3611 176 164 148 4
11.6862 21.1161 190.3129 176 164 148 4
11.6862 1.2163 194.4559 176 164 148 4
11.6862 5.4780 195.4011 176 164 148 4
11.6862 9.3043 194.9831 176 164 148 4
11.6862 12.9679 195.0787 176 164 148 4
11.6862 17.2272 194.2503 176 164 148 4
11.6862 20.6941 195.2983 176 164 148 4
22.1387 1.2163 182.9596 176 164 148 4
22.1387 4.8619 183.0713 176 164 148 4
22.1387 8.9466 182.9596 176 164 148 4
22.1387 12.9741 183.1665 176 164 148 4
22.1387 17.0226 182.9596 176 164 148 4
22.1387 21.8697 183.2968 176 164 148 4
22.1387 1.2163 187.3383 176 164 148 4
22.1387 4.8027 187.2110 176 164 148 4
22.1387 9.7510 187.6693 176 164 148 4
22.1387 13.5437 186.8394 176 164 148 4
22.1387 17.5024 187.3071 176 164 148 4
22.1387 21.8418 187.3656 176 164 148 4
22.1387 1.2163 190.8909 176 164 148 4
22.1387 4.9172 191.3485 176 164 148 4
22.1387 9.7392 190.7561 176 164 148 4
22.1387 12.9472 190.3429 176 164 148 4
22.1387 16.8545 190.8436 176 164 148 4
22.1387 20.5958 190.9738 176 164 148 4
22.1387 1.2163 195.2613 176 164 148 4
22.1387 5.2779 195.1505 176 164 148 4
22.1387 9.5251 195.0630 176 164 148 4
22.1387 13.2286 194.7610 176 164 148 4
22.1387 17.7343 194.9005 176 164 148 4
22.1387 21.4857 195.3120 176 164 148 4
55.9228 11.6746 183.7649 112 116 122 5
55.7469 11.6746 188.3937 112 116 122 5
55.5026 11.6746 191.6761 112 116 122 5
59.0214 11.6746 183.7294 112 116 122 5
59.7314 11.6746 187.8567 112 116 122 5
60.1680 11.6746 191.5087 112 116 122 5
63.1233 11.6746 183.7294 112 116 122 5
63.6462 11.6746 188.0064 112 116 122 5
63.2296 11.6746 191.3505 112 116 122 5
67.9413 11.6746 184.1599 112 116 122 5
67.4298 11.6746 187.8032 112 116 122 5
67.8128 11.6746 191.3745 112 116 122 5
70.9204 11.6746 183.7294 112 116 122 5
71.3456 11.6746 187.8606 112 116 122 5
71.6377 11.6746 192.2339 112 116 122 5
55.5026 0.0443 183.7294 176 164 148 4
55.5026 3.7856 183.7294 176 164 148 4
56.1226 8.1732 183.7294 176 164 148 4
55.9342 11.6746 183.7294 176 164 148 4
59.0458 0.1577 183.7294 176 164 148 4
59.4499 3.2169 183.7294 176 164 148 4
59.7457 6.9134 183.7294 176 164 148 4
60.2155 11.2339 183.7294 176 164 148 4
63.1548 0.0759 183.7294 176 164 148 4
63.1170 3.2704 183.7294 176 164 148 4
64.0371 7.2815 183.7294 176 164 148 4
63.5609 11.0888 183.7294 176 164 148 4
67.2233 -0.5155 183.7294 176 164 148 4
67.9165 3.9166 183.7294 176 164 148 4
66.9171 7.6529 183.7294 176 164 148 4
66.8008 11.6746 183.7294 176 164 148 4
72.1420 -0.0305 183.7294 176 164 148 4
71.7260 4.0982 183.7294 176 164 148 4
70.9987 7.8900 183.7294 176 164 148 4
71.5981 11.2101 183.7294 176 164 148 4
55.5026 -0.0379 194.3437 176 164 148 4
55.5026 3.9699 194.3437 176 164 148 4
55.8866 7.9924 194.3437 176 164 148 4
55.7902 10.8976 194.3437 176 164 148 4
59.3691 0.1306 194.3437 176 164 148 4
59.5240 2.9764 194.3437 176 164 148 4
59.6568 7.0923 194.3437 176 164 148 4
59.5855 10.8249 194.3437 176 164 148 4
63.1020 -0.5155 194.3437 176 164 148 4
64.0498 3.8508 194.3437 176 164 148 4
62.9998 7.4071 194.3437 176 164 148 4
63.5622 11.6746 194.3437 176 164 148 4
67.2801 -0.5155 194.3437 176 164 148 4
66.9976 3.6458 194.3437 176 164 148 4
67.1258 7.2320 194.3437 176 164 148 4
66.9199 11.6746 194.3437 176 164 148 4
71.7515 -0.5155 194.3437 176 164 148 4
70.8891 3.3181 194.3437 176 164 148 4
71.1759 7.1435 194.3437 176 164 148 4
71.0636 11.6746 194.3437 176 164 148 4
55.5026 -0.5155 183.7294 176 164 148 4
55.5026 4.1949 183.7294 176 164 148 4
55.5026 6.9738 184.0104 176 164 148 4
55.5026 11.6746 183.7538 176 164 148 4
55.5026 -0.5155 188.3217 176 164 148 4
55.5026 2.9724 187.0983 176 164 148 4
55.5026 7.3896 188.0135 176 164 148 4
55.5026 11.6746 187.7718 176 164 148 4
55.5026 -0.5155 191.6176 176 164 148 4
55.5026 3.9514 191.8649 176 164 148 4
55.5026 7.5619 192.2087 176 164 148 4
55.5026 11.6746 191.2474 176 164 148 4
72.1420 -0.5155 183.7294 176 164 148 4
72.1420 3.5801 183.7294 176 164 148 4
72.1420 6.9045 184.1914 176 164 148 4
72.1420 10.9041 183.7294 176 164 148 4
72.1420 -0.5155 187.8983 176 164 148 4
72.1420 3.2082 188.2297 176 164 148 4
72.1420 6.9753 188.2133 176 164 148 4
72.1420 10.9132 187.9723 176 164 148 4
72.1420 0.1849 191.6756 176 164 148 4
72.1420 3.0615 191.0611 176 164 148 4
72.1420 7.7453 191.3431 176 164 148 4
72.1420 11.0879 191.2101 176 164 148 4
